NCOLS 210
NROWS 39
XLLCORNER -119.45
YLLCORNER 33.583333333
CELLSIZE 0.0166666666666667 
NODATA_value -9999 
-9999 -9999 -9999 -9999 -9999 -9999 -9999 -9999 -9999 -9999 -9999 2.74999999231228 8.74999998925595 16.2499999961305 22.499999999997 21.749999995563 28.9999999936993 30.7499999949879 27.0000000105963 23.0000000074445 24.9999999882573 61.7499999979249 51.0000000644182 42.2499999887802 49.7499999742681 54.9999999805208 58.9999999898756 58.5000000314961 72.7499997469431 120.749999901457 132.249999985499 107.999999699321 204.249999922513 233.249999792126 252.249999930833 307.49999985766 357.999999867609 382.500000143207 373.499999838322 371.750000350711 430.749999454886 491.749999686984 567.750000109618 546.999999701014 560.750000344158 588.999999913112 542.000000692436 377.250000521425 285.000000092601 265.250000023626 276.750000024093 266.500000009829 259.25000003508 249.000000061286 245.999999968778 248.500000021188 250.499999989209 253.750000016466 252.749999983242 253.750000005678 254.750000005771 253.999999976512 258.499999976131 262.499999987872 261.000000012311 271.749999668585 392.74999878747 534.999999432956 567.74999893416 701.999998965057 635.250001056739 476.500000614327 491.499999557004 557.499999550848 663.749999025468 718.750000050334 586.249997728749 779.749998261291 975.749998808323 1134.24999656198 1438.49999940048 1280.75000159488 1416.74999520343 1624.75000161822 1281.00000337191 1109.75000191806 1164.74999964488 1125.75000111113 1130.24999826807 1098.99999769296 1150.74999938676 1094.75000095223 1097.9999987108 958.75000213343 877.750002932007 677.250001303675 562.499996167616 795.999997226302 748.250002717667 628.499999240151 711.250001314537 798.499997848923 931.249994569152 1064.25000040528 1099.49999858346 1184.49999748223 1358.00000024405 1359.74999625419 1913.49999316382 2394.50000039722 2289.75000532706 2382.24999766891 2357.74999955958 2067.2500022645 1679.00000498451 1364.00000059561 1199.7500011902 1117.75000155939 875.000001651747 950.249997820903 940.000002139637 700.000001206313 677.750000011666 687.249999327924 781.999999358146 990.999995782578 1034.50000586911 1112.99999917216 1173.99999936194 1226.7499960066 1407.49999578886 1433.5000005774 1607.99999855788 1596.25000064985 1552.75000150219 1533.74999892627 1567.74999631225 1633.50000018367 1705.24999726295 -9999 -9999 -9999 -9999 -9999 -9999 -9999 -9999 -9999 -9999 -9999 -9999 -9999 -9999 -9999 -9999 -9999 -9999 -9999 -9999 -9999 -9999 -9999 -9999 -9999 -9999 -9999 -9999 -9999 -9999 -9999 -9999 -9999 -9999 -9999 -9999 -9999 -9999 -9999 -9999 -9999 -9999 -9999 -9999 -9999 -9999 -9999 -9999 -9999 -9999 -9999 -9999 -9999 -9999 -9999 -9999 -9999 -9999 -9999 -9999 -9999 -9999 -9999 -9999 -9999 -9999 -9999 -9999 -9999 -9999 -9999
-9999 -9999 -9999 -9999 -9999 -9999 -9999 -9999 -9999 -9999 -9999 -9999 10.0000000023878 10.4999999896876 14.9999999889232 19.2499999926043 21.5000000063002 23.2499999983311 23 19.2500000093069 18.0000000039149 20.999999987686 25.7499999892632 31.499999986543 48.9999999953317 42.7499999829587 43.0000000303646 49.4999998897104 96.7499998231369 236.249999557819 200.500000023309 134.250000129263 180.999999522197 224.249999996781 237.499999947307 262.999999850891 297.249999864123 368.249999702841 442.749999775756 518.249999822713 611.749999949692 601.50000017435 547.000000413919 512.000000083075 480.000000246439 444.999999965306 393.749999782535 368.500000426288 283.000000314829 255.500000018904 253.24999998554 250.250000024585 246.500000050122 238.500000051075 232.750000026015 232.499999989404 238.749999940665 241.000000043921 240.999999988832 239.250000028407 239.249999994227 236.250000005875 238.50000002387 241.500000012128 241.500000024634 236.000000050027 247.249999752435 315.249999362099 454.250000150477 564.7499989053 794.999999555831 574.250002313952 388.250000076144 422.249999628112 447.50000001425 451.499999495523 459.500000628074 478.999999467363 576.749998958407 795.74999909699 1046.24999784066 979.750002450978 1062.7499978184 1338.75000501408 1101.50000187154 831.250003338505 942.999997043662 1246.99999762763 1456.74999867355 1224.50000317878 950.999999412604 974.500001519859 782.749998878576 937.99999891107 719.250002787615 468.500000054708 719.499998654944 941.249997607872 954.750003375803 948.249999952462 913.999999904032 902.50000052332 1050.99999890412 1110.24999898231 1358.49999584977 1510.00000163163 1116.00000229777 1470.49999308302 2052.24999675803 1878.7500063036 1674.49999664551 1978.50000298057 1878.00000307165 1564.0000005202 1672.99999886334 1715.25000278981 1610.00000024473 1544.00000298387 1203.5000054528 834.000001003956 774.499997699318 776.750001705128 626.500000584726 595.250000412655 595.749999940599 644.999999257221 704.249998804491 795.499996372744 1038.24999868743 1034.50000291767 1042.49999486722 1090.75000533549 1171.74999811531 1102.99999923538 1151.75000060355 1147.99999966371 1296.24999644268 1287.24999688912 1594.4999969324 1829.74999921432 -9999 -9999 -9999 -9999 -9999 -9999 -9999 -9999 -9999 -9999 -9999 -9999 -9999 -9999 -9999 -9999 -9999 -9999 -9999 -9999 -9999 -9999 -9999 -9999 -9999 -9999 -9999 -9999 -9999 -9999 -9999 -9999 -9999 -9999 -9999 -9999 -9999 -9999 -9999 -9999 -9999 -9999 -9999 -9999 -9999 -9999 -9999 -9999 -9999 -9999 -9999 -9999 -9999 -9999 -9999 -9999 -9999 -9999 -9999 -9999 -9999 -9999 -9999 -9999 -9999 -9999 -9999 -9999 -9999 -9999
-9999 -9999 -9999 -9999 -9999 -9999 -9999 -9999 -9999 -9999 -9999 -9999 7.7500000011935 7.74999999613216 12.7500000013845 15.4999999911222 17.250000004723 19.0000000100225 17.7500000017652 15.5000000037218 13.7500000019562 15.7499999938415 16.4999999957026 21.2499999798086 27.7499999836229 32.2499999878244 35.2499999974683 222.749999293807 266.249999861322 265.750000188703 251.500000209582 210.499999963917 200.249999928639 231.749999888062 255.500000052702 255.999999911891 321.999999651546 407.500000622887 417.249999783149 415.500000173429 432.249999887843 470.000000142588 433.249999419733 462.749999464204 425.2499998088 451.749999882687 426.250000306277 311.250000539589 270.500000037031 254.25000004253 251.000000038569 245.0000000295 237.750000015035 232.250000025537 229.250000015608 226.750000005297 227.249999983815 229.000000043917 228.249999994412 228.25000001704 227.500000023099 222.000000046964 223.499999999998 221.499999999997 219.000000036941 216.750000056272 205.000000050783 195.749999954887 244.249999561841 342.249998799011 496.999998869192 658.999999098952 464.750001529635 346.249999207024 445.50000002847 369.000000072081 337.75000008033 373.499999778033 419.999999610291 454.500000030323 469.500000860645 683.249997424612 928.499999842388 1022.50000151456 949.499998451056 707.000005256597 864.499995144298 920.500003408078 1006.50000219658 892.999998325178 812.000003490421 692.499998357822 577.500001589436 739.249999437571 562.75000257109 420.749998969782 801.999996222844 865.999997226201 856.499998927938 757.999999335023 754.500000019148 776.750000939905 844.249996663182 1185.24999833017 1429.7499977354 1400.7500067378 1003.24999844443 1313.49999657222 1347.25000042453 1207.2500049026 1330.499996561 1556.25000213949 1404.49999737933 1432.50000418239 1121.49999943157 1188.00000149946 1267.74999892106 1193.50000226586 1148.75000141402 875.50000266962 685.000000575169 639.250001055488 612.249998842206 573.000001037516 538.750000225817 525.750000035932 520.249999987906 538.999999147918 641.499998061655 737.499996093201 729.499999401939 753.250000916325 811.99999827963 966.749995985358 1014.25000252955 948.75000063378 948.999996299209 1263.74999381758 1429.49999724973 1450.00000335592 1573.99999498351 -9999 -9999 -9999 -9999 -9999 -9999 -9999 -9999 -9999 -9999 -9999 -9999 -9999 -9999 -9999 -9999 -9999 -9999 -9999 -9999 -9999 -9999 -9999 -9999 -9999 -9999 -9999 -9999 -9999 -9999 -9999 -9999 -9999 -9999 -9999 -9999 -9999 -9999 -9999 -9999 -9999 -9999 -9999 -9999 -9999 -9999 -9999 -9999 -9999 -9999 -9999 -9999 -9999 -9999 -9999 -9999 -9999 -9999 -9999 -9999 -9999 -9999 -9999 -9999 -9999 -9999 -9999 -9999 -9999
-9999 -9999 -9999 -9999 -9999 -9999 -9999 -9999 -9999 -9999 -9999 -9999 -9999 8.00000000515683 9.2499999903077 12.250000007397 13.0000000000013 15.4999999966606 15.2500000052973 12.2500000018616 11.7500000097835 10.7500000061564 10.7500000021476 15.2499999842974 29.9999998923873 64.4999998636295 189.249999612777 243.999999637613 288.750000160592 230.250000194353 221.2499999272 229.500000012006 234.499999956543 236.500000083123 241.749999897891 268.499999762763 277.999999818821 350.50000042245 391.749999739057 387.750000757944 384.750000150763 327.99999984945 397.749999468451 431.749999954324 358.250000658543 351.999999678573 390.000000124286 323.500000444372 275.499999972219 266.0000000378 264.750000024101 269.249999877091 268.750000355837 245.250000117464 238.500000031212 234.750000068873 225.250000026967 219.500000054897 216.249999994416 214.749999994321 213.75000002888 214.750000005873 209.500000000002 208.000000060623 201.500000049262 195.750000018763 187.000000063488 177.750000045111 175.74999999347 189.499999827506 246.499999111627 353.749998682672 339.250001086695 297.749999024598 400.750000988732 412.249999315332 332.500001212323 317.999999926026 335.250000112416 345.999999969657 332.500000276673 324.499999081929 435.249998590272 518.999999171104 495.749999217631 373.250002718166 526.499999256894 514.250000860462 559.000000287259 862.749996915347 819.750000216063 593.249998663584 553.749997695257 591.000003891835 -9999 590.999998413555 614.75000188859 766.499997821943 687.500000658294 741.999999715007 704.499997927634 655.749999738347 905.249998698595 1116.49999780656 1255.49999926182 1033.75000168207 870.749998383476 1093.74999978444 943.500002444517 909.249995996359 1055.75000032718 1011.24999986175 902.500001976238 864.000001148649 827.250000798023 775.75000060652 725.750000500562 729.000001211556 737.249999310003 659.50000141472 605.500000391138 581.000000371177 544.00000042101 514.249999941065 495.750000083209 484.500000215665 474.749999987934 452.000000194758 437.500000000009 434.499999876388 492.500000124628 578.499997589655 708.249998975442 803.749998228509 794.999995146304 882.500005251671 801.749996390509 1054.99999994749 1077.74999895551 1104.74999766948 1311.74999539936 1426.50000426881 -9999 -9999 -9999 -9999 -9999 -9999 -9999 -9999 -9999 -9999 -9999 -9999 -9999 -9999 -9999 -9999 -9999 -9999 -9999 -9999 -9999 -9999 -9999 -9999 -9999 -9999 -9999 -9999 -9999 -9999 -9999 -9999 -9999 -9999 -9999 -9999 -9999 -9999 -9999 -9999 -9999 -9999 -9999 -9999 -9999 -9999 -9999 -9999 -9999 -9999 -9999 -9999 -9999 -9999 -9999 -9999 -9999 -9999 -9999 -9999 -9999 -9999 -9999 -9999 -9999 -9999 -9999 -9999
-9999 -9999 -9999 -9999 -9999 -9999 -9999 -9999 -9999 -9999 -9999 -9999 -9999 -9999 5.99999999446118 11.0000000207113 10 11.9999999899767 10.7500000052956 10.0000000111672 9.25000000195577 8.00000000410424 8.74999999785196 18.7499999304486 20.4999999344912 153.499999610412 208.499999736835 291.749999845054 292.000000130604 254.000000067592 294.249999799131 402.750000002992 403.750000052694 371.000000019177 369.749999917662 359.24999982041 302.750000268287 300.249999767299 343.499999897065 339.000000218688 342.250000297685 299.249999972269 333.250000263744 362.499999684349 339.25000070105 301.999999695953 362.249999817987 331.250000240324 288.500000027781 300.749999740115 315.000000241052 300.499999891853 321.50000013032 291.000000326888 278.5000001457 263.250000090082 255.750000080926 231.000000076865 217.250000039101 209.250000039766 206.499999976899 202.499999988256 200.500000059662 198.500000024247 192.250000018469 185.250000056276 173.500000063482 167.500000128877 154.500000039235 149.500000039807 151.999999878849 178.499999726965 208.999999847722 272.249999459636 332.999999886212 456.000000086466 304.000001197697 277.74999977064 285.750000037463 277.00000001517 274.250000099893 248.000000217846 264.49999987396 257.500000175351 215.250000362999 211.499999559216 242.000000445888 261.249999523814 333.999999155046 459.9999989574 464.000001969714 400.000001677031 314.999999434849 424.4999985184 600.24999943153 524.000000565139 445.500001676607 518.249998278031 739.499997235439 811.5000018618 550.750001525493 751.749998614239 769.75000096863 770.499999130402 739.000000718221 776.500000322195 702.499998881589 731.250000646465 670.500001160053 654.000000313574 637.250000474663 627.750000329941 641.749999645547 619.75000053091 612.249999967175 590.25000047411 532.250000589446 507.500000022413 500.50000004524 521.749999737595 537.749999873449 534.000000208772 509.750000362524 481.750000459807 453.000000237701 444.750000083858 433.750000132834 465.249999622635 464.750000895557 393.250000012356 402.749999813116 411.249999585705 476.749998722366 556.749999171567 807.999995017807 822.000004837695 842.499991973142 1276.00000039374 924.250001837838 968.249997456331 1164.49999809539 1251.74999985143 1129.00000233986 1090.49999928755 -9999 -9999 -9999 -9999 -9999 -9999 -9999 -9999 -9999 -9999 -9999 -9999 -9999 -9999 -9999 -9999 -9999 -9999 -9999 -9999 -9999 -9999 -9999 -9999 -9999 -9999 -9999 -9999 -9999 -9999 -9999 -9999 -9999 -9999 -9999 -9999 -9999 -9999 -9999 -9999 -9999 -9999 -9999 -9999 -9999 -9999 -9999 -9999 -9999 -9999 -9999 -9999 -9999 -9999 -9999 -9999 -9999 -9999 -9999 -9999 -9999 -9999 -9999 -9999 -9999 -9999
-9999 -9999 -9999 -9999 -9999 -9999 -9999 -9999 -9999 -9999 -9999 -9999 -9999 -9999 -9999 -9999 6.5 5.74999999833072 7.50000000353296 6.75000000186155 8 5.75000000615763 7.24999999785281 6.99999999551378 53.4999998783825 160.999999790609 234.499999615404 228.500000120796 224.249999970116 330.499999656322 406.249999845727 432.250000502099 345.750000300901 341.000000095917 -9999 326.499999966104 309.250000170707 277.25000001074 312.499999610392 346.250000116855 339.250000150734 298.499999690935 300.000000202875 330.500000199389 263.749999995769 311.999999669873 377.49999989343 375.499999990954 369.750000374985 331.749999636144 379.749999648031 412.749999680387 421.499999679206 366.250000485189 332.250000192484 349.000000021186 -9999 297.499999758424 269.500000156377 286.00000012493 252.2500001328 222.250000088045 218.749999659895 200.999999842381 190.250000043097 188.24999978114 196.24999958733 276.750000792514 269.749999313332 196.250000696654 141.999999892315 162.74999982936 175.500000000007 221.749999179 250.999999530608 271.24999970453 298.750000211805 260.250000170169 260.250000142391 245.000000091077 229.250000069172 215.250000085591 201.500000173277 178.000000191326 157.75000010488 153.500000097955 150.499999851363 171.249999974951 178.2499997381 201.2500001282 189.750000043204 191.749999641875 212.99999977042 241.749999794729 248.500000198492 270.999999726504 292.499999742062 372.999998994793 523.249998241613 573.250001510425 455.250000489367 476.499999050395 530.249998874669 619.000001027646 522.249999850374 560.499999556866 578.999999959352 553.25000033868 545.749999865366 543.750000219543 518.250000200448 504.750000138397 503.750000010765 502.999999848323 491.000000262364 475.250000099257 455.750000300304 444.750000033662 458.999999751123 477.749999828882 487.749999942494 487.749999918811 473.500000187119 459.750000129697 442.50000038034 405.499999976042 403.500000048313 386.750000206931 372.250000233087 371.499999851648 376.249999987549 373.750000087884 390.499999595225 424.499999541196 489.999998536223 512.000001034841 663.749996573008 807.749998753123 827.500000634727 798.749996204535 1060.49999474213 1042.74999879779 959.500005768192 975.499998794366 1059.25000040003 1173.74999504101 -9999 -9999 -9999 -9999 -9999 -9999 -9999 -9999 -9999 -9999 -9999 -9999 -9999 -9999 -9999 -9999 -9999 -9999 -9999 -9999 -9999 -9999 -9999 -9999 -9999 -9999 -9999 -9999 -9999 -9999 -9999 -9999 -9999 -9999 -9999 -9999 -9999 -9999 -9999 -9999 -9999 -9999 -9999 -9999 -9999 -9999 -9999 -9999 -9999 -9999 -9999 -9999 -9999 -9999 -9999 -9999 -9999 -9999 -9999 -9999 -9999 -9999 -9999 -9999
-9999 -9999 -9999 -9999 -9999 -9999 -9999 -9999 -9999 -9999 -9999 -9999 -9999 -9999 -9999 -9999 -9999 5.50000000334111 4.99999999646832 6.00000000372097 5.49999999608633 5.75000000615763 29.2499997916745 71.9999997577665 197.749999454997 204.000000150931 180.000000253026 137.999999994747 288.749999382238 539.999998326876 751.750000212582 734.25000091704 592.250000555361 406.750000380578 371.999999868281 345.250000159275 353.000000418165 354.499999921284 310.500000191135 284.999999909473 348.249999686798 286.500000546787 344.749999362919 278.250000220101 240.750000089224 317.249999491807 429.24999962265 446.249999288111 467.500000537123 432.249999872461 460.750000419439 407.500000216295 419.749999934827 471.249999616942 460.49999886578 523.500000233141 476.000000819927 409.000000603879 381.499999631369 373.000000590783 345.25000049088 352.24999955966 324.749999838904 290.000000072784 328.499999556695 293.999999975031 278.250000095228 297.250000070834 310.249999522588 308.000000636948 168.750001097072 138.249999883956 178.749999494728 166.499999971915 179.749999679914 222.749999935123 240.500000087618 237.749999889019 234.50000002997 212.500000166958 195.250000023042 183.500000186722 167.250000055123 153.750000103623 134.750000072599 130.000000016319 126.750000024769 130.999999983287 137.499999797222 152.249999888913 157.750000198709 161.499999720466 176.500000017655 186.749999830404 209.749999720329 250.999999179481 279.250000156633 279.749999730071 351.99999958621 347.250000085479 369.999999904045 424.749998963146 438.250000048904 454.250000029616 465.249999710672 491.49999969784 499.750000030485 485.250000318125 472.499999937841 466.250000114976 452.750000263712 431.000000170299 420.500000021469 426.499999956645 421.000000218609 414.000000022044 408.500000200188 410.749999899036 423.74999987555 436.499999954358 442.999999907964 444.500000115981 438.750000011688 426.750000153263 421.250000083193 402.500000431316 374.000000241525 366.750000085198 353.000000220811 345.999999999995 345.25000003737 348.500000200854 349.249999759651 361.499999719603 395.249999627614 418.250000012923 479.99999927025 566.499997610997 625.750001890737 718.999999360749 866.249999101372 812.00000097257 853.499997061509 985.749995958589 1196.99999983449 1369.74999654127 1594.50000008386 -9999 -9999 -9999 -9999 -9999 -9999 -9999 -9999 -9999 -9999 -9999 -9999 -9999 -9999 -9999 -9999 -9999 -9999 -9999 -9999 -9999 -9999 -9999 -9999 -9999 -9999 -9999 -9999 -9999 -9999 -9999 -9999 -9999 -9999 -9999 -9999 -9999 -9999 -9999 -9999 -9999 -9999 -9999 -9999 -9999 -9999 -9999 -9999 -9999 -9999 -9999 -9999 -9999 -9999 -9999 -9999 -9999 -9999 -9999 -9999 -9999 -9999 -9999
-9999 -9999 -9999 -9999 -9999 -9999 -9999 -9999 -9999 -9999 -9999 -9999 -9999 -9999 -9999 -9999 -9999 -9999 -9999 5.99999997766395 6.25000001369763 4.50000000410509 104.249999267561 330.500000062842 300.000000308836 221.75000080104 168.749999228254 256.749999908127 373.749999387707 653.249999535321 627.000000477561 610.99999926034 620.750000406333 517.749999811216 477.750000345711 516.249999766133 587.500000139298 392.750000726654 414.249999996289 313.000000226254 302.750000444596 256.500000229825 322.750000612739 313.250001117253 226.499999439184 283.249999978276 330.749999906738 443.749998979776 412.250000958405 367.749999494402 456.750000564077 348.750000683379 428.999999348416 544.74999993359 496.250000244456 382.750000174884 478.750001656098 435.250000488586 321.750000117333 318.750001539503 274.250000236825 339.750000099788 275.999999570432 388.999999927258 314.250000695783 268.74999953107 187.250000666609 167.999999922695 191.000000052352 180.750000298602 160.00000026922 129.750000266204 122.749999868495 191.249999347396 201.750000846419 169.249999963975 204.249999919647 210.750000362519 188.000000059957 166.750000144204 155.249999976952 146.500000124492 139.25000007089 128.750000087691 117.000000112943 111.000000065303 -9999 -9999 127.749999805681 140.999999880375 146.499999948164 149.499999965067 161.249999849882 178.499999785777 199.249999756422 222.999999781196 247.249999788116 272.249999785919 300.749999915378 323.499999867019 331.499999961628 350.749999719 370.999999960866 393.499999743106 412.499999800482 422.999999859013 429.000000040681 420.750000071849 414.50000010359 417.99999962369 387.000000274288 381.500000063877 376.999999892607 381.000000065021 378.250000098387 378.00000002206 374.749999922153 383.74999985418 392.999999909504 402.249999988598 408.999999977 410.2500000812 405.500000093564 399.000000141488 392.250000011892 381.750000179721 366.250000277761 346.749999987832 335.750000159481 327.000000173087 320.999999950167 328.249999836799 339.499999873506 352.249999783335 364.999999794553 382.999999818909 406.999999556963 437.749999540595 471.749999510789 573.499997229992 723.749999584293 761.24999628515 1039.75000123789 1039.00000002738 1141.7499978341 1213.50000002784 1287.99999496513 1339.25000268966 -9999 -9999 -9999 -9999 -9999 -9999 -9999 -9999 -9999 -9999 -9999 -9999 -9999 -9999 -9999 -9999 -9999 -9999 -9999 -9999 -9999 -9999 -9999 -9999 -9999 -9999 -9999 -9999 -9999 -9999 -9999 -9999 -9999 -9999 -9999 -9999 -9999 -9999 -9999 -9999 -9999 -9999 -9999 -9999 -9999 -9999 -9999 -9999 -9999 -9999 -9999 -9999 -9999 -9999 -9999 -9999 -9999 -9999 -9999 -9999 -9999 -9999
-9999 -9999 -9999 -9999 -9999 -9999 -9999 -9999 -9999 -9999 -9999 -9999 -9999 -9999 -9999 -9999 -9999 -9999 -9999 -9999 -9999 -9999 -9999 218.999999802537 204.500000271308 204.250000445552 145.74999974949 249.249999740129 325.749999763333 399.249999974673 433.499999574953 370.000000138236 319.500000012338 409.749999606613 550.00000019095 462.500000637087 534.999999672433 545.2500001038 584.499999617803 593.749999528739 558.250000336454 394.250000281385 310.999999959443 237.250000726874 209.750000046741 259.499999895737 306.999999236536 411.750000068086 552.749998763862 404.500000160679 300.750000756866 360.499999498559 381.500000210424 458.999998733316 484.500001352756 317.24999943306 371.500001812457 385.750000598351 275.000000245757 270.500000318109 242.499999896 194.249999853199 176.74999963602 189.00000010906 137.750000449447 104.750000081274 101.999999936506 105.000000012879 108.750000019612 114.00000002653 141.999999609631 185.250000047785 138.7500005745 140.999999256146 147.75000017781 215.000000533332 173.49999998538 166.000000029584 161.750000052454 147.000000121426 126.500000061476 118.500000046677 115.250000055127 104.500000095652 98.5000000483973 97.7499999918365 106.249999958709 97.7499999916476 114.249999923957 118.250000076904 119.49999960259 137.999999912648 153.499999841051 171.749999830405 187.749999846631 207.749999790306 217.999999797312 256.999999553221 285.499999717901 312.250000351452 311.499999942429 322.749999932163 332.249999814068 348.749999930824 359.7499999102 368.249999828775 374.749999969489 374.249999969204 369.250000155362 358.750000177702 341.75000013713 342.999999999993 346.500000021472 347.749999989158 345.500000043718 345.500000088205 349.749999855408 355.499999955125 362.499999909491 371.749999942952 377.249999896462 380.999999999994 376.499999999995 371.500000023575 363.000000047536 361.499999999999 347.750000181143 331.500000121717 322.250000331222 308.25000008654 314.999999875414 327.249999786581 337.999999999997 349.499999617652 366.999999820236 377.749999883591 402.499999739386 429.999999527463 465.999999497561 504.249999587155 566.499998363598 682.499998324925 819.749998707598 1008.49999884913 1040.00000022062 1172.49999649969 1325.00000167844 1313.50000152093 1355.24999936212 1483.99999583245 -9999 -9999 -9999 -9999 -9999 -9999 -9999 -9999 -9999 -9999 -9999 -9999 -9999 -9999 -9999 -9999 -9999 -9999 -9999 -9999 -9999 -9999 -9999 -9999 -9999 -9999 -9999 -9999 -9999 -9999 -9999 -9999 -9999 -9999 -9999 -9999 -9999 -9999 -9999 -9999 -9999 -9999 -9999 -9999 -9999 -9999 -9999 -9999 -9999 -9999 -9999 -9999 -9999 -9999 -9999 -9999 -9999 -9999 -9999 -9999
-9999 -9999 -9999 -9999 -9999 -9999 -9999 -9999 -9999 -9999 -9999 -9999 -9999 -9999 -9999 -9999 -9999 -9999 -9999 -9999 -9999 -9999 -9999 -9999 -9999 -9999 146.249998919608 267.999999658723 298.749999338753 359.000000512704 412.499999638992 206.500000168412 408.25000002784 390.249999638613 458.750000023054 412.250000220276 586.249999250845 506.750001120483 518.750000047775 606.249999671958 609.249999795081 595.749999655298 502.250000239506 473.000000398693 229.750001261823 268.500000321331 449.24999798921 709.250000394515 606.000000583456 642.750000751317 456.250001238918 281.750000290088 329.500001353217 311.999998712981 456.500000749258 356.500001780227 237.500000086311 241.00000006593 192.500000346297 185.000000238618 147.250000017338 129.000000223101 104.750000125303 76.7500002121684 59.2500000184738 66.4999999499801 77.7499999301702 82.749999954895 84.2499999542303 90.9999999336535 114.749999872125 144.249999856653 169.749999910038 119.750000399993 131.499999587473 175.749999718923 150.999999985393 138.499999866829 140.250000037473 131.749999977233 112.00000019981 100.499999984443 94.5000000000042 85.2500000558028 87.2499999596655 93.2499999591898 98.4999999504541 96.7499999749395 104.99999993241 111.749999888919 121.499999948163 128.749999903918 141.999999894038 155.499999946448 170.749999774467 198.749999553265 245.999999520929 298.749998855134 331.250000310294 306.499999829049 294.500000057595 293.750000029074 299.74999995108 305.749999990127 314.249999910219 325.749999909364 333.749999908504 335.24999996922 332.000000082871 323.750000114996 317.500000168789 312.499999893561 316.250000096665 320.749999924158 323.249999967213 324.249999922816 327.249999944396 329.499999977571 337.499999909503 345.999999863103 352.49999988497 352.500000069598 349.750000081868 344.250000058954 339.250000178288 337.750000083874 327.500000289843 314.750000109552 307.500000171752 302.999999901098 311.74999986296 322.24999978658 337.249999835556 354.999999694119 378.249999756031 402.749999624881 427.999999713324 448.999999658716 479.499999471115 522.999999307484 576.249999289104 643.499999054404 715.749999034116 805.749999164306 871.499997792812 1006.49999830541 1188.49999720287 1513.99999400136 1581.99999415915 1927.24999342038 2148.74999903728 -9999 -9999 -9999 -9999 -9999 -9999 -9999 -9999 -9999 -9999 -9999 -9999 -9999 -9999 -9999 -9999 -9999 -9999 -9999 -9999 -9999 -9999 -9999 -9999 -9999 -9999 -9999 -9999 -9999 -9999 -9999 -9999 -9999 -9999 -9999 -9999 -9999 -9999 -9999 -9999 -9999 -9999 -9999 -9999 -9999 -9999 -9999 -9999 -9999 -9999 -9999 -9999 -9999 -9999 -9999 -9999 -9999 -9999 -9999
-9999 -9999 -9999 -9999 -9999 -9999 -9999 -9999 -9999 -9999 -9999 -9999 -9999 -9999 -9999 -9999 -9999 -9999 -9999 -9999 -9999 -9999 -9999 -9999 -9999 -9999 -9999 -9999 -9999 161.499998884542 233.000000640437 298.999998839309 362.999999571791 324.249999811312 373.250000556562 369.250001148828 317.749998560939 349.000001718354 409.249999944847 426.249999438115 418.749999315593 480.500000269384 341.000001249789 352.749998766446 342.750001380941 203.249998762105 476.499999689172 370.500000018092 293.500001805616 399.999999338417 477.750000168733 343.000002320553 316.749999072743 236.250000955043 252.999999833455 219.499999809208 197.000000172587 143.99999991215 131.999999988815 116.250000153375 112.500000023094 100.500000152632 87.5000001789945 61.250000187919 46.7499999692105 58.2499998436747 63.2500000444336 66.2499999935503 67.2499999149832 78.2499999137426 99.7499997240477 127.250000143339 108.250000422205 94.4999999859654 104.749999935984 121.249999848644 147.499999518005 138.249999504314 137.74999993256 127.749999886163 113.250000115276 88.5000002022919 75.7500000551297 77.749999944198 82.9999999999991 87.2499999428619 91.0000000495471 96.7499999582331 99.7499999746522 106.249999923094 114.999999896325 123.999999982529 138.24999974392 163.999999714379 191.750000009038 261.499998851293 333.249999990792 278.500000893538 232.499999924763 238.499999848014 255.499999923242 265.749999854647 273.250000048923 277.249999911064 285.499999860324 291.999999899278 297.499999938991 302.249999948682 301.250000031069 295.250000073168 294.499999915602 294.499999999996 292.000000064433 292.749999902475 296.500000131166 297.499999999995 300.499999999995 303.999999798079 313.7499998303 321.249999806051 329.499999999997 331.500000115987 326.249999918134 320.500000212215 311.250000130737 309.499999952067 304.250000350218 291.249999866103 290.499999999997 304.749999864007 313.749999788205 329.999999899571 344.49999979761 357.749999783337 377.999999691826 404.74999972836 428.249999648172 455.499999579964 488.499999682673 524.249999374076 584.999999034269 761.749997852135 911.24999794579 963.00000241109 843.249999820648 897.749998930425 993.999998601381 1097.24999807081 1270.24999780251 1500.99999668866 1856.49999341973 2205.99999890066 2430.49999676792 -9999 -9999 -9999 -9999 -9999 -9999 -9999 -9999 -9999 -9999 -9999 -9999 -9999 -9999 -9999 -9999 -9999 -9999 -9999 -9999 -9999 -9999 -9999 -9999 -9999 -9999 -9999 -9999 -9999 -9999 -9999 -9999 -9999 -9999 -9999 -9999 -9999 -9999 -9999 -9999 -9999 -9999 -9999 -9999 -9999 -9999 -9999 -9999 -9999 -9999 -9999 -9999 -9999 -9999 -9999 -9999 -9999
-9999 -9999 -9999 -9999 -9999 -9999 -9999 -9999 -9999 -9999 -9999 -9999 -9999 -9999 -9999 -9999 -9999 -9999 -9999 -9999 -9999 -9999 -9999 -9999 -9999 -9999 -9999 -9999 -9999 -9999 -9999 -9999 -9999 -9999 -9999 191.500000027191 132.499999038347 279.250000776846 223.49999854463 233.249999053567 221.249999756475 206.000001363073 188.500000202976 202.500000058193 188.499999609184 85.2500008470023 122.249998708278 -9999 -9999 -9999 197.750000091647 -9999 -9999 -9999 93.0000003121799 98.9999999258283 86.7499997248978 98.2500000054956 82.500000055861 75.2500000738603 76.000000069312 62.7500000411014 77.4999998926069 54.2500001515539 35.7499999692152 37.9999999499792 49.2499999047727 63.7499999548907 68.2499999542222 69.2499999535593 77.4999999192364 93.4999996996685 84.5000000138458 86.2499998947421 102.749999935988 112.749999834241 112.500000073046 111.499999763269 109.250000247316 119.249999795102 138.500000307413 106.75000049016 72.5000001260125 72.2499999920288 74.7499999758011 82.4999999510258 92.2499998761249 94.7500000584712 94.749999974653 100.999999948731 107.999999948166 124.749999799094 194.749999055109 295.499999018101 303.749999467726 275.750000702029 233.000000350076 239.000000781874 221.999999586249 303.249999895486 277.250000585237 248.499999980624 253.249999970647 255.500000000004 260.24999993017 267.999999959719 270.999999898335 275.749999907642 274.250000031079 271.750000052272 270.500000126594 268.500000063873 272.749999710022 271.250000054182 274.000000000005 274.249999900766 275.499999955518 279.499999910266 312.00000002261 351.749997957845 385.999999861902 395.500000533501 326.000000280671 300.749999917472 288.250000011893 269.000000143776 299.000000265663 290.249999695691 315.499999656484 340.249999987618 373.749998916092 392.250000012524 383.750000088531 377.250000114697 399.499999537734 420.249999650741 457.999999374518 491.999999763718 540.249999325658 593.499999307465 659.74999947687 729.499999459682 790.249998435606 767.250000315113 812.99999931025 887.999998805413 1026.49999739855 1129.49999676121 1357.99999707949 1497.74999867255 1507.99999928166 1638.24999660133 1912.74999783099 1804.24999916483 2010.99999569321 -9999 -9999 -9999 -9999 -9999 -9999 -9999 -9999 -9999 -9999 -9999 -9999 -9999 -9999 -9999 -9999 -9999 -9999 -9999 -9999 -9999 -9999 -9999 -9999 -9999 -9999 -9999 -9999 -9999 -9999 -9999 -9999 -9999 -9999 -9999 -9999 -9999 -9999 -9999 -9999 -9999 -9999 -9999 -9999 -9999 -9999 -9999 -9999 -9999 -9999 -9999 -9999 -9999 -9999 -9999
-9999 -9999 -9999 -9999 -9999 -9999 -9999 -9999 -9999 -9999 -9999 -9999 -9999 -9999 -9999 -9999 -9999 -9999 -9999 -9999 -9999 -9999 -9999 -9999 -9999 -9999 -9999 -9999 -9999 -9999 -9999 -9999 -9999 -9999 -9999 -9999 -9999 75.75000003221 63.2499996949344 69.7500003657505 -9999 -9999 -9999 -9999 -9999 -9999 -9999 -9999 -9999 -9999 -9999 -9999 -9999 -9999 -9999 -9999 41.7499996817323 53.000000076849 50.2499999050456 53.2500000056827 48.5000000230996 47.2499999236747 40.9999999522609 37.7500000788022 32.999999987686 36.5000000000017 37.0000000126968 46.7499999033373 56.000000052311 60.4999999071113 66.9999999596155 72.4999999726947 75.2499999792347 80.2499998385984 84.2499999644259 80.2500000504392 75.0000000291999 69.0000000887755 75.9999999100679 85.9999998178498 127.249999700263 109.750000350089 72.7500002283939 67.9999999840558 73.2500000080705 145.249999191972 165.250000173482 118.250000776889 93.7499999746543 99.7499999060061 137.749999369342 141.500000262072 160.999999487829 208.250000294535 218.99999994586 204.749999753824 202.250000506673 208.249999711456 240.99999941698 304.999999107098 295.250000623651 267.000000271335 236.75000014678 235.000000059282 236.49999996009 242.749999949637 248.749999908492 251.000000020519 252.000000041427 250.250000031356 248.500000021094 248.000000063863 249.749999924816 254.499999999998 251.749999967204 253.250000011022 265.99999933269 295.499999035255 375.999998076763 331.249999440975 448.500000851205 315.750000034777 359.499998620033 293.250000742766 277.000000261471 261.999999808299 301.000000362277 299.249999622669 351.999998797786 532.750003103202 412.999999302317 470.24999853118 529.249999860894 495.750000165708 427.500000385221 456.250000038783 506.999999348473 564.749999356839 599.99999957691 654.749999613803 645.000000348736 638.499999675789 694.749998762032 745.249999465716 792.499999365421 869.499998277555 1038.49999820973 1060.49999738082 1267.74999525065 1305.99999891524 1376.49999913795 1410.49999826443 1511.49999860232 1425.00000126022 1547.24999629784 1727.49999646696 1980.99999249979 -9999 -9999 -9999 -9999 -9999 -9999 -9999 -9999 -9999 -9999 -9999 -9999 -9999 -9999 -9999 -9999 -9999 -9999 -9999 -9999 -9999 -9999 -9999 -9999 -9999 -9999 -9999 -9999 -9999 -9999 -9999 -9999 -9999 -9999 -9999 -9999 -9999 -9999 -9999 -9999 -9999 -9999 -9999 -9999 -9999 -9999 -9999 -9999 -9999 -9999 -9999 -9999 -9999
-9999 -9999 -9999 -9999 -9999 -9999 -9999 -9999 -9999 -9999 -9999 -9999 -9999 -9999 -9999 -9999 -9999 -9999 -9999 -9999 -9999 -9999 -9999 -9999 -9999 -9999 -9999 -9999 -9999 -9999 -9999 -9999 -9999 -9999 -9999 -9999 -9999 -9999 -9999 -9999 -9999 -9999 -9999 -9999 -9999 -9999 -9999 -9999 -9999 -9999 -9999 -9999 -9999 -9999 -9999 -9999 -9999 -9999 38.4999999553236 31.0000000000141 38.7499998209733 30.5000000000038 22.4999999880706 28.2499998484551 107.250000104673 101.500000287601 57.5000002539221 42.9999999871122 46.9999999346063 55.2499999535572 59.9999999596193 64.7499999658711 67.2499999792369 67.7499999789483 62.0000000711286 57.2499999927945 54.0000000146076 52.7499999038229 55.749999917568 60.9999999696439 63.4999999231497 58.0000000622457 60.4999999842503 73.9999996811323 135.499999645007 230.749999012338 271.000001056998 155.000000668257 109.000000152074 106.999999982906 113.999999930884 122.750000008742 128.999999858717 146.750000044637 165.499999945879 163.249999954417 179.749999788109 213.499999478752 273.999999228907 354.749999724532 367.249999875289 315.500000135651 262.000000645839 218.500000158096 215.750000029933 220.249999969789 224.249999908502 226.750000030792 226.750000010364 226.999999958191 226.749999989456 229.749999946781 232.749999903343 235.249999989167 233.499999956279 234.750000011031 231.750000011126 230.500000044872 241.74999967193 260.249999463815 280.74999978144 272.750000127596 305.750000152063 259.750000341915 254.250000249603 254.999999904152 278.249999673932 311.749999573978 351.249999398895 418.749999641497 497.999999451775 475.49999997488 537.499998937466 608.999999464712 542.500001694912 489.500000284552 478.750000221506 551.49999902869 605.749998453053 600.750000386242 617.250000254851 641.999999621754 685.999999238169 734.249999547912 772.24999946199 824.999999194347 903.999998377608 998.499999943648 1113.99999827043 1143.49999931495 1211.74999748577 1321.49999563228 1274.25000257683 1402.2500014508 1316.50000064903 1413.99999916879 1514.75000159876 1526.75000371398 1564.74999759412 -9999 -9999 -9999 -9999 -9999 -9999 -9999 -9999 -9999 -9999 -9999 -9999 -9999 -9999 -9999 -9999 -9999 -9999 -9999 -9999 -9999 -9999 -9999 -9999 -9999 -9999 -9999 -9999 -9999 -9999 -9999 -9999 -9999 -9999 -9999 -9999 -9999 -9999 -9999 -9999 -9999 -9999 -9999 -9999 -9999 -9999 -9999 -9999 -9999 -9999 -9999
-9999 -9999 -9999 -9999 -9999 -9999 -9999 -9999 -9999 -9999 -9999 -9999 -9999 -9999 -9999 -9999 -9999 -9999 -9999 -9999 -9999 -9999 -9999 -9999 -9999 -9999 -9999 -9999 -9999 -9999 -9999 -9999 -9999 -9999 -9999 -9999 -9999 -9999 -9999 -9999 -9999 -9999 -9999 -9999 -9999 -9999 -9999 -9999 -9999 -9999 -9999 -9999 -9999 -9999 -9999 -9999 -9999 -9999 14.5000000781928 9.24999998295571 14.2499999480179 15.7499999823827 12.4999999999996 23.7499997514575 82.4999998522057 109.249999656077 81.2500001967938 46.5000000644412 44.9999999869208 49.9999999734595 52.9999999865375 57.750000006824 61.2499999653902 61.500000056136 57.2500000071109 54.2499999927902 47.7500000219099 45.7500000517903 48.4999999250601 55.4999999392853 55.7500002228636 51.999999906636 56.2500000393799 71.9999997130223 169.999998757646 250.249999763238 323.999998992546 257.500001887859 143.500000321064 156.499999760766 141.0000001728 137.750000061153 136.999999947023 138.499999910744 153.999999819576 185.249999553283 232.749999235394 286.749999878985 332.749999257156 319.75000052243 342.750000182285 290.000000639549 260.250000851334 209.750000187737 201.000000019949 200.25000003021 202.999999959327 203.749999989733 206.499999999996 208.749999947729 211.4999999578 212.999999978706 217.499999957036 217.250000054173 217.749999989066 219.999999867679 220.499999977753 225.749999809306 225.999999728488 279.250000034242 343.749999068204 257.250000800335 235.499999929829 245.499999646303 257.5000001664 264.499999808308 287.249999673937 359.749998113339 497.249997902221 560.000000890208 593.99999828072 741.749998606508 708.500002782991 603.999998368644 709.250000372425 641.500001319413 554.000000443076 526.99999989501 560.999999285981 624.499999200925 669.500000241434 668.749999121939 700.00000019045 721.749999575302 770.999999503379 817.74999898599 920.499998181815 1056.49999938036 1022.49999923439 1023.74999930062 1098.49999954023 1187.50000141731 1173.74999943221 1147.49999821216 1179.50000554577 1112.74999930224 1125.24999911847 1233.50000129308 1422.49999833547 1235.00000475077 1313.99999978539 -9999 -9999 -9999 -9999 -9999 -9999 -9999 -9999 -9999 -9999 -9999 -9999 -9999 -9999 -9999 -9999 -9999 -9999 -9999 -9999 -9999 -9999 -9999 -9999 -9999 -9999 -9999 -9999 -9999 -9999 -9999 -9999 -9999 -9999 -9999 -9999 -9999 -9999 -9999 -9999 -9999 -9999 -9999 -9999 -9999 -9999 -9999 -9999 -9999
-9999 -9999 -9999 -9999 -9999 -9999 -9999 -9999 -9999 -9999 -9999 -9999 -9999 -9999 -9999 -9999 -9999 -9999 -9999 -9999 -9999 -9999 -9999 -9999 -9999 -9999 -9999 -9999 -9999 -9999 -9999 -9999 -9999 -9999 -9999 -9999 -9999 -9999 -9999 -9999 -9999 -9999 -9999 -9999 -9999 -9999 -9999 -9999 -9999 -9999 -9999 -9999 -9999 -9999 -9999 -9999 -9999 -9999 -9999 -9999 6.74999995957261 8.74999993542083 27.9999999045222 26.7500001030474 34.7499998707003 52.7499998937066 56.5000000126998 52.2500000451033 48.2500000326943 45.2500000066347 47.0000000134612 48.4999999863495 50.7499999930814 51.0000000280706 50.5000000284513 48.0000000144158 43.2500000365154 43.2499999926026 46.2499999625317 48.7499999772353 49.2499999308366 50.0000000155626 52.5000000157502 55.9999999043453 85.9999996934646 141.499999330688 208.249999958736 242.500000016741 226.749999873222 267.999999042932 315.500000535591 234.499999877684 167.00000010596 176.499999642945 209.499999440646 267.999999507675 255.500000442211 289.249999581131 291.99999988717 297.499999715029 369.499999635399 332.75000117247 256.50000033269 230.000000434761 199.000000199526 183.250000030217 182.499999979669 185.749999928166 191.249999886063 193.499999979097 197.750000031649 198.499999957424 203.000000042963 202.749999924155 204.749999879762 209.999999955896 204.999999866543 211.749999831736 234.749999287292 250.499999931559 261.500000368132 231.00000018559 233.499999953221 262.500000094326 263.749999750405 279.749999700472 302.999999758467 333.499999683529 422.749997141653 720.999997181198 640.000003911947 557.749999435085 638.000001770987 701.749996597079 759.249999422171 766.750000064705 697.750001550652 611.000000840052 597.500000396625 598.999999733605 602.499999517121 618.750000067558 663.499999591899 679.499999753421 712.249999324054 789.999998999916 859.249999230802 858.249999591657 882.749999617235 921.499999229308 986.249997169677 1070.99999884299 1059.00000168875 1011.5000010258 1012.49999887905 961.249999153869 990.749999656363 947.25000028573 1062.74999992441 1031.49999771594 1188.99999791617 1275.50000030851 1184.24999886761 -9999 -9999 -9999 -9999 -9999 -9999 -9999 -9999 -9999 -9999 -9999 -9999 -9999 -9999 -9999 -9999 -9999 -9999 -9999 -9999 -9999 -9999 -9999 -9999 -9999 -9999 -9999 -9999 -9999 -9999 -9999 -9999 -9999 -9999 -9999 -9999 -9999 -9999 -9999 -9999 -9999 -9999 -9999 -9999 -9999 -9999 -9999
-9999 -9999 -9999 -9999 -9999 -9999 -9999 -9999 -9999 -9999 -9999 -9999 -9999 -9999 -9999 -9999 -9999 -9999 -9999 -9999 -9999 -9999 -9999 -9999 -9999 -9999 -9999 -9999 -9999 -9999 -9999 -9999 -9999 -9999 -9999 -9999 -9999 -9999 -9999 -9999 -9999 -9999 -9999 -9999 -9999 -9999 -9999 -9999 -9999 -9999 -9999 -9999 -9999 -9999 -9999 -9999 -9999 -9999 -9999 -9999 28.2499999480354 44.2499999941306 44.2500000536964 41.7500001151738 34.5000000000004 38.9999999499737 54.7499998666767 69.5000000257748 59.0000000915534 47.7500000995234 44.0000000134604 42.4999999999996 42.9999999999979 43.7500000350851 42.4999999999983 40.9999999999979 37.5000000292101 37.7499999630075 42.5000000149879 43.2499999772297 47.0000000307385 46.5000000622431 49.2499999133649 47.749999976085 54.9999998386571 79.999999771443 110.749999644899 153.499999348413 209.000000084475 222.249999683807 253.749999887674 243.000000454219 286.499999187611 316.500000249986 301.500000180429 234.249999152118 269.999999926301 272.499999236763 355.250000122275 377.00000011398 335.249999817703 369.499999399259 314.000001389527 255.999999940733 234.499999860349 193.750000392802 168.999999979664 173.499999999997 173.749999948207 182.749999926823 182.750000031644 184.499999978708 187.499999914077 191.500000043339 189.999999890687 198.499999735371 217.750000100118 231.750000056112 220.250000079201 218.499999840287 246.99999979294 237.999999953609 245.249999847972 258.499999834939 280.2499995127 299.749999844253 308.249999408251 360.249999135778 430.749998810044 640.749996970953 717.250003899517 538.500000627702 540.749999531956 612.249998406847 698.500000436518 660.250001668626 618.250000534229 620.999999291165 680.499999338862 707.249999427346 704.000000697501 694.500001080712 674.250001346829 699.249998506741 720.250000068974 743.249999347145 779.999999664329 804.499999718363 826.49999971645 849.999999600363 879.749999525865 952.499998004123 976.249999868946 928.000000879233 925.999997994053 875.999997476295 864.500000806722 823.49999837606 922.250001558483 957.249995934354 973.249997931405 883.249999707015 937.750002280479 854.750003231009 983.750003062278 749.500002369841 -9999 -9999 -9999 -9999 -9999 -9999 -9999 -9999 -9999 -9999 -9999 -9999 -9999 -9999 -9999 -9999 -9999 -9999 -9999 -9999 -9999 -9999 -9999 -9999 -9999 -9999 -9999 -9999 -9999 -9999 -9999 -9999 -9999 -9999 -9999 -9999 -9999 -9999 -9999 -9999 -9999 -9999 -9999 -9999
-9999 -9999 -9999 -9999 -9999 -9999 -9999 -9999 -9999 -9999 -9999 -9999 -9999 -9999 -9999 -9999 -9999 -9999 -9999 -9999 -9999 -9999 -9999 -9999 -9999 -9999 -9999 -9999 -9999 -9999 -9999 -9999 -9999 -9999 -9999 -9999 -9999 -9999 -9999 -9999 -9999 -9999 -9999 -9999 -9999 -9999 -9999 -9999 -9999 -9999 -9999 -9999 -9999 -9999 -9999 -9999 -9999 -9999 -9999 -9999 -9999 34.2499999119346 40.9999999999962 36.7499999454442 35.250000030789 29.0000000000026 31.7499999682611 49.9999997680256 69.249999980382 50.2500000862514 41.2500000605738 37.9999999863503 36.5000000138445 35.5000000140351 34.7499999928887 35.5000000000017 34.2499999780909 39.0000000591876 38.4999999850129 41.0000000000004 41.0000000000009 42.5000000155622 42.7499999133662 50.7499999920292 48.0000000161322 52.7499998938912 68.2499998761368 88.9999997828191 119.249999788788 130.999999880391 142.99999987907 152.250000026223 183.249999814582 209.99999966084 198.75000002709 246.749999571545 269.999999834142 366.749998948199 350.75000115664 316.750000978399 349.24999922282 386.500000426377 380.999999452034 353.75000082011 319.999999800483 281.500001369711 189.750000274493 162.000000000003 166.499999917138 171.000000104538 170.499999936706 177.249999968068 176.499999957038 190.500000130016 199.24999990162 251.999998213725 319.250001323498 252.250000011227 240.000000226258 227.500000022817 236.749999804443 241.250000011599 252.749999731025 266.999999811353 291.999999405717 365.000000407332 376.749999867129 371.999999147949 474.000000147207 472.249999542568 516.999999551513 512.250000288751 505.249999962055 524.499999515701 548.999999974334 559.500000336328 555.249999960917 551.500000052514 559.249999431466 594.249999507275 607.999999973189 647.499999405642 715.000000462569 702.249999958876 698.749999875847 727.499999777754 757.249999790211 778.249999422654 803.999999688106 815.499999857281 811.750000158048 822.499999363661 868.74999858787 851.500001465448 794.00000044251 737.750000697723 690.750000552813 689.499999969947 722.749998834897 737.750000532991 702.499999969389 665.999999044111 641.500000372369 630.000003215516 568.250000047156 542.250000458212 643.749998362889 -9999 -9999 -9999 -9999 -9999 -9999 -9999 -9999 -9999 -9999 -9999 -9999 -9999 -9999 -9999 -9999 -9999 -9999 -9999 -9999 -9999 -9999 -9999 -9999 -9999 -9999 -9999 -9999 -9999 -9999 -9999 -9999 -9999 -9999 -9999 -9999 -9999 -9999 -9999 -9999 -9999 -9999 -9999
-9999 -9999 -9999 -9999 -9999 -9999 -9999 -9999 -9999 -9999 -9999 -9999 -9999 -9999 -9999 -9999 -9999 -9999 -9999 -9999 -9999 -9999 -9999 -9999 -9999 -9999 -9999 -9999 -9999 -9999 -9999 -9999 -9999 -9999 -9999 -9999 -9999 -9999 -9999 -9999 -9999 -9999 -9999 -9999 -9999 -9999 -9999 -9999 -9999 -9999 -9999 -9999 -9999 -9999 -9999 -9999 -9999 -9999 -9999 -9999 -9999 26.9999997651602 40.7500000536981 38.7500000060613 35.2500000307873 27.5000000375192 22.4999999873023 26.4999998968953 55.2499997580374 61.7500000066351 46.5000001076894 33.5000000682577 32.2500000207636 30.249999978947 30.2499999928857 30.4999999855842 32.7500000073015 33.7500000221956 36.5000000149866 35.7500000227677 35.2499999615751 35.2499999922185 36.2499999921221 45.7499999441976 46.7500000725984 60.2499998449098 67.9999998348402 76.7499998914044 89.5000000506927 87.9999999316383 96.2499999395238 107.499999842766 119.500000052976 129.749999562618 158.999999603029 180.250000136728 185.749999603835 209.749998929553 232.750000724029 273.749998451691 386.749999740982 407.249999660822 428.250000146758 335.000001403091 262.250000009957 290.749999486359 265.25000068121 177.750000441294 161.249999927492 167.000000146349 169.999999894508 170.499999957421 193.999999828162 202.250000509262 208.49999975952 294.999999426653 300.00000062282 233.250000033647 232.249999671918 241.250000376488 238.499999907977 248.99999976802 265.749999801196 288.499999622726 331.499999191797 386.249999628604 444.499999033891 481.999999610508 459.750000110413 466.249999839278 476.749999763288 489.999999924673 489.000000075895 488.749999987251 499.499999871589 504.249999987057 527.750000534232 508.000000157505 504.500000158657 504.499999786908 528.499999785376 566.499999540685 591.999999346984 631.250000452063 698.499998261812 731.999999555512 762.249999538463 772.999999802854 793.49999988658 792.250000071359 782.500000172401 766.999999971065 766.000000349384 742.000000439609 717.000000206482 688.750000549256 648.750000612555 615.500000300712 622.999999576295 617.250000380657 573.000000827404 531.500000400856 497.500000837715 473.499999937547 451.750000612461 424.999999747195 411.999999968186 446.499998688741 452.250002139354 477.249999174729 -9999 -9999 -9999 -9999 -9999 -9999 -9999 -9999 -9999 -9999 -9999 -9999 -9999 -9999 -9999 -9999 -9999 -9999 -9999 -9999 -9999 -9999 -9999 -9999 -9999 -9999 -9999 -9999 -9999 -9999 -9999 -9999 -9999 -9999 -9999 -9999 -9999 -9999 -9999 -9999
-9999 -9999 -9999 -9999 -9999 -9999 -9999 -9999 -9999 -9999 -9999 -9999 -9999 -9999 -9999 -9999 -9999 -9999 -9999 -9999 -9999 -9999 -9999 -9999 -9999 -9999 -9999 -9999 -9999 -9999 -9999 -9999 -9999 -9999 -9999 -9999 -9999 -9999 -9999 -9999 -9999 -9999 -9999 -9999 -9999 -9999 -9999 -9999 -9999 -9999 -9999 -9999 -9999 -9999 -9999 -9999 -9999 -9999 -9999 -9999 -9999 -9999 41.4999999522677 36.2499999939396 33.7499999815284 27.2500000312652 21.5000000126977 20.2499999935559 21.4999999476864 33.7499999004834 43.0000000538462 35.2500000614329 27.2500000207644 25.7499999929825 27.4999999857752 28.5000000000013 27.7499999780918 28.5000000000009 32.0000000449641 31.7500000227703 31.5000000153712 30.749999992221 32.9999999527461 32.4999999840584 31.2499999919354 38.9999998530762 56.249999760525 79.2499998579963 91.2499994001102 123.249999940151 102.750000164135 99.0000000174704 103.499999947018 105.500000053561 110.249999882721 117.249999917951 129.749999732842 178.749999879013 191.249999689684 245.499999487058 271.750000009605 322.749999389585 419.249998796437 386.500001798288 261.500000419003 257.749999123797 265.9999987393 268.25000202171 157.500000020713 158.999999853649 168.999999725726 178.500000149024 181.24999996778 190.749999815797 222.499999212967 287.999999161993 312.750002457956 217.000000089742 219.499999932122 232.249999760421 252.999999723912 272.4999999304 285.999999812884 310.249999681667 358.74999903727 429.499998945672 458.749999384095 486.249999720044 513.249999889579 480.750000309068 472.999999950167 473.250000037665 474.249999987353 476.250000089216 472.499999974323 472.500000025877 473.999999817575 505.249999068029 580.500000502356 465.999999946735 468.000000080487 472.749999311079 524.499998938894 559.499998904055 653.999997710031 661.249999013785 746.749997804197 808.000001379997 798.49999951798 795.000000827798 770.499999885062 753.750000535122 724.500000378513 699.250000395667 694.999999026513 680.750001232119 702.749998789776 612.25000112769 560.750000559872 537.250000350234 511.000000337107 484.750000385458 459.500000403355 478.249998017614 439.749999261867 425.750003144018 364.750000302002 352.500000000004 363.000000064354 351.250000436914 316.500000683644 -9999 -9999 -9999 -9999 -9999 -9999 -9999 -9999 -9999 -9999 -9999 -9999 -9999 -9999 -9999 -9999 -9999 -9999 -9999 -9999 -9999 -9999 -9999 -9999 -9999 -9999 -9999 -9999 -9999 -9999 -9999 -9999 -9999 -9999 -9999 -9999 -9999 -9999 -9999
-9999 -9999 -9999 -9999 -9999 -9999 -9999 -9999 -9999 -9999 -9999 -9999 -9999 -9999 -9999 -9999 -9999 -9999 -9999 -9999 -9999 -9999 -9999 -9999 -9999 -9999 -9999 -9999 -9999 -9999 -9999 -9999 -9999 -9999 -9999 -9999 -9999 -9999 -9999 -9999 -9999 -9999 -9999 -9999 -9999 -9999 -9999 -9999 -9999 -9999 -9999 -9999 -9999 -9999 -9999 -9999 -9999 -9999 -9999 -9999 -9999 -9999 -9999 40.5000001818582 29.5000000123157 22.5000000250117 19.2500000063482 19.5 19.2499999803816 20.7500000066347 25.2499999798022 31.999999959042 29.5000000830576 24.7500000070171 24.7499999928865 24.9999999711693 25.7500000073019 25.7500000073978 25.2499999775171 27.2499999620517 27.5000000153686 27.4999999844374 27.4999999999991 27.7499999760863 26.0000000322673 30.9999998367493 40.9999998843856 50.2499999916425 88.4999998986018 95.9999999487169 89.9999998271983 89.4999999475905 103.499999841059 110.500000624811 96.0000000360816 102.249999936178 108.499999871022 111.999999869682 133.749999783712 159.749999743515 183.749999664181 211.999998895328 265.249999109477 319.99999889329 280.99999980047 215.499998952574 208.9999995323 216.499999404753 166.00000022788 165.50000002091 170.749999989458 174.249999925494 180.000000128878 189.499999739949 230.249999595547 230.250000231553 236.500000645063 222.999999753221 233.249999852935 254.499999498026 277.499999792943 305.499999628846 322.749999520529 380.249999304413 400.499999857406 434.749998837851 476.749999867162 506.999999367058 535.749999914128 501.500000593427 472.25000026163 465.999999999997 462.999999999998 462.750000038234 461.499999974318 481.499999715444 514.499999087874 628.249998070421 575.000000925511 451.500000372889 439.499999973172 -9999 464.999999210953 516.249999657507 642.999999751701 598.249999458259 681.999998209761 723.00000061959 762.500000878972 746.749999957162 753.249998376474 807.750001113615 771.250000684274 813.249999018267 956.49999938058 999.25000334021 927.250001270057 886.00000153377 774.25000519017 642.250000654872 760.999998896928 556.250000940563 669.749993841233 773.249991586815 872.500004177492 508.250005829884 377.249999888755 383.99999958428 469.249998214605 320.250001019431 292.000000325538 267.000000458432 -9999 -9999 -9999 -9999 -9999 -9999 -9999 -9999 -9999 -9999 -9999 -9999 -9999 -9999 -9999 -9999 -9999 -9999 -9999 -9999 -9999 -9999 -9999 -9999 -9999 -9999 -9999 -9999 -9999 -9999 -9999 -9999 -9999 -9999 -9999 -9999 -9999 -9999
-9999 -9999 -9999 -9999 -9999 -9999 -9999 -9999 -9999 -9999 -9999 -9999 -9999 -9999 -9999 -9999 -9999 -9999 -9999 -9999 -9999 -9999 -9999 -9999 -9999 -9999 -9999 -9999 -9999 -9999 -9999 -9999 -9999 -9999 -9999 -9999 -9999 -9999 -9999 -9999 -9999 -9999 -9999 -9999 -9999 -9999 -9999 -9999 -9999 -9999 -9999 -9999 -9999 -9999 -9999 -9999 -9999 -9999 -9999 -9999 -9999 -9999 -9999 54.2500000181864 37.2500000923585 32.0000000750312 23.0000000380888 17.2500000064433 14.0000000000004 13.7499999668253 15.7499999932698 26.7499998566563 36.2499999930741 26.5000000280671 23.2500000213387 21.9999999855847 20.2500000073036 22.2500000073987 22.7499999625309 23.7499999924108 24.0000000000009 23.0000000466827 24.7500000078766 23.5000000159442 23.250000024201 21.9999999673503 25.0000000000013 30.7499999248211 41.4999999324176 46.250000042733 56.4999999136175 68.249999921396 64.2500000088362 72.4999998750388 77.7499999368512 84.9999999817695 90.7499998986647 94.2499998603897 97.2499998025356 123.249999895515 145.250000527706 117.499999922495 116.000000274 145.749999970385 150.250000189581 173.249999365526 161.250000945556 186.249999907606 201.999999668508 211.250000010431 207.499999831207 215.500000042568 202.500000128871 199.000000151686 197.749999879761 212.749999636119 235.999999421639 317.999998743633 396.499999479541 321.749999942926 350.749999666373 367.249999060475 382.500000631479 383.249999563779 439.999999738527 487.499999472819 519.499999975841 513.749999841766 528.500000269888 512.500000247257 477.50000032392 461.750000188311 455.000000075898 453.000000025492 487.999998227992 651.750000168146 522.250000899131 -9999 515.749999193452 472.250001664699 436.250000013413 436 -9999 -9999 546.7499984688 571.750002319731 613.249999286714 693.249998972045 739.750000439492 689.499999743112 684.249999784514 732.499998958686 854.999998107402 1072.4999963365 1186.49999958706 1255.99999979215 1233.99999988048 1136.00000375898 994.249999803213 990.249997000245 1139.74999805409 1144.00000222007 1028.74999374793 1400.74999861066 1166.75000453845 904.500008721113 531.75000001585 880.000004860918 793.750004873879 424.000002233019 479.249999332532 305.250003749288 -9999 -9999 -9999 -9999 -9999 -9999 -9999 -9999 -9999 -9999 -9999 -9999 -9999 -9999 -9999 -9999 -9999 -9999 -9999 -9999 -9999 -9999 -9999 -9999 -9999 -9999 -9999 -9999 -9999 -9999 -9999 -9999 -9999 -9999 -9999 -9999 -9999 -9999
-9999 -9999 -9999 -9999 -9999 -9999 -9999 -9999 -9999 -9999 -9999 -9999 -9999 -9999 -9999 -9999 -9999 -9999 -9999 -9999 -9999 -9999 -9999 -9999 -9999 -9999 -9999 -9999 -9999 -9999 -9999 -9999 -9999 -9999 -9999 -9999 -9999 -9999 -9999 -9999 -9999 -9999 -9999 -9999 -9999 -9999 -9999 -9999 -9999 -9999 -9999 -9999 -9999 -9999 -9999 -9999 -9999 -9999 -9999 -9999 -9999 -9999 -9999 35.7499996059717 42.2500001293069 34.2500000562761 26.5000000380896 23.2499999935563 22.7500000850134 17.00000009289 11.7500000336514 20.9999998907779 46.2499998407974 42.5000001824525 17.9999999999996 18.7500000072055 18.2500000073032 19.7499999778048 19.9999999850121 19.9999999999996 20.7500000230538 21.0000000155609 18.7500000393795 19.7500000398561 19.2499999757986 22.999999951025 23.250000008259 27.9999999665863 31.999999932409 37.4999999316408 43.4999999481626 50.2499999737965 55.2499999381877 59.7499999553695 66.7499999729332 69.2499999908828 73.74999995394 75.4999999813819 82.2499999153678 91.2499998765094 96.0000000000004 147.749999331399 184.249999892385 201.500000652161 158.749999990028 271.749998982798 368.499996787262 579.249999435677 490.50000111877 339.00000133808 279.24999984179 262.750000095812 258.999999828173 253.750000205887 228.750000142113 218.75000025362 379.999999288187 404.250000190693 416.999999230716 409.500001665651 392.749999758427 415.249999385254 461.249999426967 450.50000082531 422.999999096699 469.999999856211 482.749999649771 508.249999500949 517.750000355759 518.999999703285 503.250000635389 462.500000251082 450.500000025298 447.50000002549 457.499999460692 -9999 -9999 -9999 565.000003358443 438.749999986683 464.500001207152 437.500000027017 436.500000054417 434.999999972602 444.499999641329 478.749999374913 565.749997664302 636.500001577109 636.249999248579 634.999999543267 654.999999856341 705.249998047525 881.499998835304 945.74999743554 1117.74999868732 1218.24999882719 1246.74999890932 1245.25000097738 1175.75000149806 1112.49999945186 1179.74999823796 1534.4999912734 1796.49999742485 1914.50000243506 1424.00000766381 1037.25000778908 919.750001764456 1330.49999171717 1229.50000949066 940.750004611959 995.750008578081 703.250005321201 325.000001976188 -9999 -9999 -9999 -9999 -9999 -9999 -9999 -9999 -9999 -9999 -9999 -9999 -9999 -9999 -9999 -9999 -9999 -9999 -9999 -9999 -9999 -9999 -9999 -9999 -9999 -9999 -9999 -9999 -9999 -9999 -9999 -9999 -9999 -9999 -9999 -9999 -9999
-9999 -9999 -9999 -9999 -9999 -9999 -9999 -9999 -9999 -9999 -9999 -9999 -9999 -9999 -9999 -9999 -9999 -9999 -9999 -9999 -9999 -9999 -9999 -9999 -9999 -9999 -9999 -9999 -9999 -9999 -9999 -9999 -9999 -9999 -9999 -9999 -9999 -9999 -9999 -9999 -9999 -9999 -9999 -9999 -9999 -9999 -9999 -9999 -9999 -9999 -9999 -9999 -9999 -9999 -9999 -9999 -9999 -9999 -9999 -9999 -9999 -9999 -9999 -9999 40.7500001785624 35.7499999687356 31.5000000253932 27.7500000837698 19.7500000850117 16.7500000066355 10.5 9.50000002730232 11.5 13.5000000140351 16.7499999217609 20.7499999927881 23.5000000584203 21.2500000073961 19.2499999925058 19.2499999924112 17.0000000000009 19.0000000466822 16.5000000157523 16.7499999920288 19.0000000161351 19.2499999918382 22.9999999669687 29.7499999415271 34.7499999746534 38.9999998974631 45.2499999222457 49.9999999126506 53.7499999735083 58.4999999464458 64.2499999548924 66.4999999453003 80.2499996775561 115.999999646267 152.499999435758 157.000000151953 163.499999635395 213.49999982558 296.749998600663 339.249999496054 228.000000857974 380.499996354092 600.250000294824 748.749998286246 773.250003614949 570.250000825752 411.000001371343 326.250000308672 328.249999967762 318.500000368391 290.750000338846 277.999999889744 326.749996363136 369.50000060576 379.999999524857 -9999 -9999 -9999 444.749999684254 440.75000017686 442.749999916798 471.749999604624 506.999999855092 509.75000008522 504.250000355764 507.49999995055 514.750000361298 470.250000238524 450.750000139144 445.250000012744 444.499999922957 460.74999959902 -9999 592.749997282951 448.000000661112 439.250000013317 439.500000026825 438.749999986491 443.249999959186 440.500000054797 439.999999944821 444.999999888878 458.249999678329 594.749996719068 736.499998355395 807.499996374728 931.249999554534 821.750001229269 960.999995457842 1099.24999969227 1141.25000110623 1100.24999870846 1214.74999747499 1442.74999827082 1390.25000152821 1334.25000159878 1430.74999811524 1761.24998943856 2198.99999394962 2161.50000343387 1877.75001248503 1758.24998860852 1548.00000616699 1603.2499906137 1822.00000813924 1302.75000412639 803.000003222908 611.250000703953 492.750005319084 -9999 -9999 -9999 -9999 -9999 -9999 -9999 -9999 -9999 -9999 -9999 -9999 -9999 -9999 -9999 -9999 -9999 -9999 -9999 -9999 -9999 -9999 -9999 -9999 -9999 -9999 -9999 -9999 -9999 -9999 -9999 -9999 -9999 -9999 -9999 -9999 -9999
-9999 -9999 -9999 -9999 -9999 -9999 -9999 -9999 -9999 -9999 -9999 -9999 -9999 -9999 -9999 -9999 -9999 -9999 -9999 -9999 -9999 -9999 -9999 -9999 -9999 -9999 -9999 -9999 -9999 -9999 -9999 -9999 -9999 -9999 -9999 -9999 -9999 -9999 -9999 -9999 -9999 -9999 -9999 -9999 -9999 -9999 -9999 -9999 -9999 -9999 -9999 -9999 -9999 -9999 -9999 -9999 -9999 -9999 -9999 -9999 -9999 -9999 -9999 -9999 40.7500000923611 31.4999999874925 33.2499999936522 31.2499999935554 22.5000000784729 17.2499999933657 15.250000047113 12.2500000204779 10.750000020764 12.2499999929816 13.9999999715492 35.4999999999974 28.7500000803302 21.7500000221913 21.7500000824358 17.2499999620508 16.5000000461075 16.2499999922193 12.9999999999996 14.9999999681138 15.7499999596655 20.9999999346993 25.7499999421947 28.4999999665863 32.2499999408578 36.7499999914537 41.7499999568028 44.2499999563244 49.7499999911693 54.4999999642948 58.5000000721701 60.7500000091155 72.4999997973252 116.749999432194 171.749999764882 203.999999392033 230.75000027818 277.999999263555 266.999999980418 382.749997796553 395.999999760618 485.500000886267 502.749999115525 620.49999835802 785.999999026331 716.499999226505 595.000003628883 528.499999914933 420.000000300744 399.500000325084 344.500000721453 282.250000385927 265.24999956623 315.999998900699 357.74999919679 425.499999794649 429.749999712421 423.749999918812 435.999999789512 466.99999962274 501.749999655355 496.500000623042 522.999999589436 529.749999671377 529.500000073625 519.500000197817 511.750000286552 485.500000251091 454.750000316237 444.750000114703 441.499999999998 460.249999366188 540.249998319017 443.500000315023 436.499999920668 450.999999760286 463.750000040247 472.49999948669 615.999997034348 580.00000498668 446.500000000002 443.000000027782 445.74999993007 450.749999929591 560.499996143766 880.249994476388 1067.99999936784 1067.74999937814 1072.49999723394 1044.25000013187 1042.50000120942 1164.99999685285 1184.25000091134 1250.74999896244 1412.24999798745 1624.24999502074 1867.99999466779 2166.9999949429 2157.25000290094 2217.49999937547 2367.75000453867 2512.74998936731 2434.74999302246 2137.24999819321 2017.00001746911 1402.25000830133 1273.50000735745 1133.75000519021 656.000010506747 265.000004869769 -9999 -9999 -9999 -9999 -9999 -9999 -9999 -9999 -9999 -9999 -9999 -9999 -9999 -9999 -9999 -9999 -9999 -9999 -9999 -9999 -9999 -9999 -9999 -9999 -9999 -9999 -9999 -9999 -9999 -9999 -9999 -9999 -9999 -9999 -9999 -9999
-9999 -9999 -9999 -9999 -9999 -9999 -9999 -9999 -9999 -9999 -9999 -9999 -9999 -9999 -9999 -9999 -9999 -9999 -9999 -9999 -9999 -9999 -9999 -9999 -9999 -9999 -9999 -9999 -9999 -9999 -9999 -9999 -9999 -9999 -9999 -9999 -9999 -9999 -9999 -9999 -9999 -9999 -9999 -9999 -9999 -9999 -9999 -9999 -9999 -9999 -9999 -9999 -9999 -9999 -9999 -9999 -9999 -9999 -9999 -9999 -9999 -9999 -9999 25.7499993756105 77.999999901451 34.5000001750749 28.7500000063482 28.5000000257752 26.2500000326956 17.5000000663491 16.2500000067306 16.0000000409558 14.5000000692123 11.4999999298272 11.4999999857752 13.7499998774742 32.9999999707835 23.2500001701626 14.2500000374687 11.4999999848211 11.0000000000004 16.2499999299749 10.9999999684967 12 13.2499999919333 19.4999999836739 21.2499999587106 25.4999999498812 28.9999999831026 34.7499999743665 38.7499999913616 44.0000000000017 47.7499999381868 49.4999999464463 53.2500000270634 56.749999917947 71.4999998341738 88.7499998231484 105.000000000006 138.999999392047 167.749999184469 184.999999399231 285.999998943157 332.000000750942 433.25000054871 413.999999637421 584.249997732738 700.000002360374 684.999998612037 921.750000637654 778.999997215 705.750002629159 683.500001761334 571.000001300168 400.000001770786 333.250000231539 281.500000578338 356.499998048175 402.249999739807 413.749999737616 444.250000126542 491.499999582408 539.749999029345 609.999999669847 615.749999607764 593.74999994009 627.74999945656 644.499999586136 629.750001312611 575.000000840663 549.249999688533 561.75000033895 467.500000809566 441.500000127452 437.750000089884 444.749999805976 479.749999674248 433.999999973748 449.499999629777 475.249999640415 499.249999745139 557.249997690045 648.499999483067 709.749999054728 496.500002345143 450.500000083342 449.499999944055 452.249999929591 461.749999815697 472.999999571827 648.49999520147 837.749999031071 822.000000378543 788.000001025861 847.49999755162 1099.99999358693 1084.25000270428 1066.99999747397 1224.49999742763 1500.24999392439 1721.49999803873 1886.99999824244 1839.49999854174 2025.99999194575 2420.99999428352 2918.24999432812 3099.25000710497 2767.0000038057 2563.25000461658 2001.00000783191 1467.00000612024 1220.00000409328 924.500005533328 311.250006675124 -9999 -9999 -9999 -9999 -9999 -9999 -9999 -9999 -9999 -9999 -9999 -9999 -9999 -9999 -9999 -9999 -9999 -9999 -9999 -9999 -9999 -9999 -9999 -9999 -9999 -9999 -9999 -9999 -9999 -9999 -9999 -9999 -9999 -9999 -9999 -9999
-9999 -9999 -9999 -9999 -9999 -9999 -9999 -9999 -9999 -9999 -9999 -9999 -9999 -9999 -9999 -9999 -9999 -9999 -9999 -9999 -9999 -9999 -9999 -9999 -9999 -9999 -9999 -9999 -9999 -9999 -9999 -9999 -9999 -9999 -9999 -9999 -9999 -9999 -9999 -9999 -9999 -9999 -9999 -9999 -9999 -9999 -9999 -9999 -9999 -9999 -9999 -9999 -9999 -9999 -9999 -9999 -9999 -9999 -9999 -9999 -9999 -9999 88.4999992243879 182.999999842456 171.250000030828 137.750000493991 69.2500004507611 35.5000000515577 24.7500000457803 16.2500001127923 14.4999999596172 18 14.5000000276835 9.99999997192944 9.24999997866091 10.9999999711706 14.7499999050583 39.7500002441347 19.5000002248215 8.74999997723101 8.24999999231484 8.50000004668266 9.24999999212427 9.99999993622808 10.9999999677318 15.4999999999987 21.2499998926459 22.749999941525 27.4999999493056 30.9999999487309 35.7499999222444 38.7499999213832 43.4999999646776 46.7499999196655 47.7499999909775 54.2499998632456 69.4999998526 82.9999998138385 93.4999998683498 157.999998784115 181.000000383794 187.99999961241 212.749999911936 264.249999021768 311.749998852719 444.249997572814 555.24999998979 529.999998912138 699.749999761735 995.749995891736 1033.74999828044 1011.24999817981 858.500001009587 594.250003933246 557.499997442217 485.500001323224 320.250000834162 301.749999024078 376.249999377771 379.50000104956 429.249999183222 533.499998932843 631.250000152013 640.500000448009 637.249999821719 625.500000047937 643.749999698095 683.249999379218 639.7500016561 576.500000321427 525.500000323911 525.999999748909 481.00000106256 443.000000280392 434.500000077042 434.749999987063 433.500000026061 441.749999776861 516.249998135721 585.749999240936 643.999998927005 602.750000878088 603.49999885727 688.999999397213 516.000001710589 457.749999930548 459.749999958044 459.500000000002 466.249999815698 475.249999928639 479.999999885064 521.749998221082 613.49999871887 597.250000542174 654.499997492576 789.999997654401 868.250000194156 949.749996376276 1200.24999704931 1381.24999599526 1560.50000067412 1603.49999685468 1757.49999699044 2117.49999163364 2561.49999478606 2915.24999587636 2793.00000486369 2600.00000223853 2449.25000175322 1919.50000909419 1392.00000651091 1202.00000517381 845.500011066551 439.75000902717 146.750000383168 -9999 -9999 -9999 -9999 -9999 -9999 -9999 -9999 -9999 -9999 -9999 -9999 -9999 -9999 -9999 -9999 -9999 -9999 -9999 -9999 -9999 -9999 -9999 -9999 -9999 -9999 -9999 -9999 -9999 -9999 -9999 -9999 -9999 -9999 -9999
-9999 -9999 -9999 -9999 -9999 -9999 -9999 -9999 -9999 -9999 -9999 -9999 -9999 -9999 -9999 -9999 -9999 -9999 -9999 -9999 -9999 -9999 -9999 -9999 -9999 -9999 -9999 -9999 -9999 -9999 -9999 -9999 -9999 -9999 -9999 -9999 -9999 -9999 -9999 -9999 -9999 -9999 -9999 -9999 -9999 -9999 -9999 -9999 -9999 -9999 -9999 -9999 -9999 -9999 -9999 -9999 -9999 -9999 -9999 -9999 -9999 -9999 144.499998890245 316.249999254377 306.250000584938 196.000000662782 140.750000133302 97.0000003350689 65.5000002354136 23.2499999535465 12.0000000269229 10.0000000136527 7.00000002768559 6.25000003508596 5.99999997154873 16.4999999279262 17.499999985392 17.9999999408102 15.0000000149875 18.7499998254425 12.0000001383299 6.99999996887823 7.7499999921247 8.49999995217138 11.2499999757998 14.4999999673507 18.9999999009049 20.499999983294 23.499999983103 28.0000000170905 29.249999991362 32.7499999912652 36.7499999558478 41.2500000624863 45.9999999639145 57.7499999361822 64.9999999263019 71.2500000093124 80.499999736709 132.999999468069 193.749999913667 189.249998711229 295.999998845309 283.000001659986 265.24999975061 299.749999506532 350.74999915615 459.499999753697 628.999998591259 820.749997459827 816.249999736339 852.749999350714 934.250004371186 773.99999932808 838.250000929097 594.750002877916 398.000001801758 315.750000437471 308.750000350691 376.999998060553 515.499997308114 632.749998503658 677.749999824525 674.24999944585 724.250002008625 676.500000047922 685.749999094273 708.000000413846 601.250001239001 533.750000383258 496.500000323924 494.249999610833 470.250000645129 440.250000191177 432.250000012841 432.749999987065 434.999999895754 458.999999317438 552.74999784482 708.24999753627 735.500000617021 668.25000087806 685.499997687295 612.500003150919 548.750003048716 459.999999944437 463.749999958042 468.499999999999 468.249999957468 476.749999843001 487.999999827593 494.749999927685 522.999999446801 588.749998314767 674.499999469034 653.250001321228 688.999996653331 981.749992076054 1390.49999703417 1611.99999963461 1424.24999986215 1587.99999707066 1808.49999515978 2056.24999829861 2256.74999747165 2272.00000619341 2466.99999475482 2402.25000340593 2264.25000246107 2030.749998754 1737.75001036859 1385.25001118242 748.750007196418 317.000004803403 163.499999966679 225.999995844857 -9999 -9999 -9999 -9999 -9999 -9999 -9999 -9999 -9999 -9999 -9999 -9999 -9999 -9999 -9999 -9999 -9999 -9999 -9999 -9999 -9999 -9999 -9999 -9999 -9999 -9999 -9999 -9999 -9999 -9999 -9999 -9999 -9999 -9999
-9999 -9999 -9999 -9999 -9999 -9999 -9999 -9999 -9999 -9999 -9999 -9999 -9999 -9999 -9999 -9999 -9999 -9999 -9999 -9999 -9999 -9999 -9999 -9999 -9999 -9999 -9999 -9999 -9999 -9999 -9999 -9999 -9999 -9999 -9999 -9999 -9999 -9999 -9999 -9999 -9999 -9999 -9999 -9999 -9999 -9999 -9999 -9999 -9999 -9999 -9999 -9999 -9999 -9999 -9999 -9999 -9999 -9999 -9999 -9999 -9999 -9999 122.499998997627 279.249999193767 324.00000040635 332.500000150101 294.000000888819 187.250001346793 58.5000005362418 21.9999999336467 5.49999998653834 -9999 11.2500000346072 -9999 -9999 -9999 -9999 -9999 -9999 -9999 5.75000002305505 7.49999993775688 6.99999998424641 6.99999995217181 9.99999995159797 11.9999999836747 15.2499999421943 17.2499999916451 19.749999957753 22.9999999487301 26.7499999568015 28.7500000087343 31.2499999735075 33.749999955369 43.7499999007623 49.7499999361793 57.5000000184215 56.2500000465371 59.7499998777501 85.499999430058 130.500001093762 159.749998691841 322.499998571297 320.000000019774 303.750000189588 322.999999234549 293.249999156141 407.749999127682 510.250001108271 593.499997930153 749.250000453711 912.249997945626 929.24999816336 970.499997984496 969.500000240563 824.500003153585 532.000001356947 359.250000908629 339.500000203645 343.999999999995 488.749996514392 700.749999431592 666.000001520289 664.999997712695 689.499999667192 659.250001138178 671.249999456556 672.750001886641 657.499998871387 573.500002645704 484.250000460962 482.500000276189 451.000000328885 435.250000063724 431.5 432.49999997413 441.999999843634 469.500000026246 491.749999484331 563.499999360718 590.999999114718 667.000000540331 657.999999999995 506.000000931553 470.000000331078 478.749999986096 466.999999916084 473.24999990143 479.249999929118 488.499999828733 525.499999454069 513.250000101247 516.249999810748 528.499999560382 563.749998687285 612.999999435922 713.499996234992 920.749995955321 1218.24999674671 1265.00000130944 1425.24999379433 1662.4999981807 1854.74999787466 1851.00000137353 1867.25000381613 1932.49999450189 2489.24999321306 2478.99999996803 2276.25000892754 1680.50000627851 1437.50000439469 1180.00000088405 789.500009123367 406.250003627468 199.750001049527 279.499998291053 -9999 -9999 -9999 -9999 -9999 -9999 -9999 -9999 -9999 -9999 -9999 -9999 -9999 -9999 -9999 -9999 -9999 -9999 -9999 -9999 -9999 -9999 -9999 -9999 -9999 -9999 -9999 -9999 -9999 -9999 -9999 -9999 -9999 -9999
-9999 -9999 -9999 -9999 -9999 -9999 -9999 -9999 -9999 -9999 -9999 -9999 -9999 -9999 -9999 -9999 -9999 -9999 -9999 -9999 -9999 -9999 -9999 -9999 -9999 -9999 -9999 -9999 -9999 -9999 -9999 -9999 -9999 -9999 -9999 -9999 -9999 -9999 -9999 -9999 -9999 -9999 -9999 -9999 -9999 -9999 -9999 -9999 -9999 -9999 -9999 -9999 -9999 -9999 -9999 -9999 -9999 -9999 -9999 -9999 -9999 -9999 -9999 -9999 -9999 153.499999462276 315.999998514536 243.000001469217 101.750000503538 39.7500002587633 8.74999999327024 -9999 -9999 -9999 -9999 -9999 -9999 -9999 -9999 -9999 -9999 13.0000001244888 4.25000002362761 -9999 8.49999993546538 9.74999997551335 13.5000000495501 15.7500000250601 15.4999999831034 17.5000000000004 20.2499999395251 24.4999999650609 28.4999999646793 28.4999999285943 39.7499998105552 40.500000000003 45.2499999723658 44.5000000930818 40.0000000376164 48.2499998765175 69.249999856085 99.4999996705466 187.499998962775 222.999998873592 340.749999770564 382.249999869031 330.750000132154 347.249998860858 425.999998715558 505.750000449457 638.499998333163 710.500000021181 811.249995800608 1034.24999738855 1107.99999503729 970.750005281702 683.000000756268 637.250002882804 427.500000090462 407.250000102655 376.99999967788 408.249999246097 516.750000456174 533.999999363377 565.499997551607 588.999998514344 627.000001449176 646.75000154585 581.249999374366 559.250001990456 493.00000027408 452.750000313853 440.250000088546 438.74999993627 435.249999987159 436.500000000001 441.499999843632 450.499999868741 463.749999828117 483.499999627115 503.499999758571 530.750000148616 530.500001169986 480.750000643874 459.50000002759 462.249999958327 467.749999846154 473.499999831023 486.249999929115 499.499999800184 511.749999784491 524.749999869833 537.499999796181 551.499999765525 575.500000235969 563.749999569485 631.999999372539 689.249998150607 872.249996292853 1057.49999661963 1340.24999606209 1573.99999731732 1717.75000091537 1663.75000120194 1700.24999850805 2025.99999210037 2038.75000185985 1980.99999469128 1977.00001441276 1554.25000441769 1261.00000563198 914.000005697708 804.250000082303 573.00000745359 281.250004681182 350.749997671139 431.999999292308 -9999 -9999 -9999 -9999 -9999 -9999 -9999 -9999 -9999 -9999 -9999 -9999 -9999 -9999 -9999 -9999 -9999 -9999 -9999 -9999 -9999 -9999 -9999 -9999 -9999 -9999 -9999 -9999 -9999 -9999 -9999 -9999 -9999
-9999 -9999 -9999 -9999 -9999 -9999 -9999 -9999 -9999 -9999 -9999 -9999 -9999 -9999 -9999 -9999 -9999 -9999 -9999 -9999 -9999 -9999 -9999 -9999 -9999 -9999 -9999 -9999 -9999 -9999 -9999 -9999 -9999 -9999 -9999 -9999 -9999 -9999 -9999 -9999 -9999 -9999 -9999 -9999 -9999 -9999 -9999 -9999 -9999 -9999 -9999 -9999 -9999 -9999 -9999 -9999 -9999 -9999 -9999 -9999 -9999 -9999 -9999 -9999 -9999 -9999 -9999 167.000000592815 98.5000004969993 42.7500004312755 -9999 -9999 -9999 -9999 -9999 -9999 -9999 -9999 -9999 -9999 -9999 -9999 4.25000002362761 5.25000002391495 6.49999998386656 8.00000003264972 8.49999996696701 13.4999999999983 14.4999999662035 16.7499999743648 18.4999999308828 20.4999999475892 23.0000000353211 21.9999999999983 25.4999999458694 27.7499999544128 30.4999999999979 30.9999999813824 29.9999999623844 33.9999999620016 44.999999769733 75.4999995930202 121.999999412872 170.749999318208 313.499998303976 422.999999395701 423.000001769067 382.50000077997 427.249998187363 549.249998275197 724.499996286722 883.49999887156 1024.24999846414 1224.49999902475 1303.75000381499 1009.00000125713 1060.25000328099 830.000000560956 688.750001640466 547.000001140885 477.500000713245 438.250000382791 386.000000257293 405.499999457656 432.000001545117 512.7499971365 552.7500005434 532.74999918447 536.500000883254 510.75000030907 472.750000336372 450.49999982425 513.999999038637 503.000001376475 445.000000359535 438.249999987064 449.249999569993 454.000000341287 457.499999920667 563.499996457549 522.499999409798 594.500002377509 467.500000027205 499.500001589117 458.749999986205 460.999999888876 467.249999874126 472.999999943675 483.499999829874 507.999999942918 517.749999841964 538.249999754133 558.749999694284 574.249999750886 634.249999011788 684.499999406231 677.999999402374 748.500000210542 689.000000181591 908.499995766825 1270.49999494348 1394.74999585248 1555.24999961213 1545.49999878245 1748.49999610524 1764.00000530846 1646.24999960259 1772.99999920044 2013.75000101334 1948.25000529149 1457.50000556692 1228.75000522296 1037.75000690006 661.500005035322 467.250007146816 393.249998977983 496.499997843217 -9999 -9999 -9999 -9999 -9999 -9999 -9999 -9999 -9999 -9999 -9999 -9999 -9999 -9999 -9999 -9999 -9999 -9999 -9999 -9999 -9999 -9999 -9999 -9999 -9999 -9999 -9999 -9999 -9999 -9999 -9999 -9999 -9999
-9999 -9999 -9999 -9999 -9999 -9999 -9999 -9999 -9999 -9999 -9999 -9999 -9999 -9999 -9999 -9999 -9999 -9999 -9999 -9999 -9999 -9999 -9999 -9999 -9999 -9999 -9999 -9999 -9999 -9999 -9999 -9999 -9999 -9999 -9999 -9999 -9999 -9999 -9999 -9999 -9999 -9999 -9999 -9999 -9999 -9999 -9999 -9999 -9999 -9999 -9999 -9999 -9999 -9999 -9999 -9999 -9999 -9999 -9999 -9999 -9999 -9999 -9999 -9999 -9999 -9999 -9999 -9999 -9999 -9999 -9999 -9999 -9999 -9999 -9999 -9999 -9999 -9999 -9999 -9999 -9999 -9999 -9999 5.99999993622851 9.00000004840544 4.74999999183864 5.24999997522728 13.2499999248194 13.0000000168983 15.2499999914562 15.0000000000004 19.0000000524108 16.7499999735096 17.0000000357048 16.2499999368507 18.2499999726506 22.2499999907894 20.7499999720793 21.7499999153712 27.4999998480175 44.4999997505441 69.9999998062039 92.7499997945113 144.499999604772 239.499999241811 278.999999335296 359.500001545425 436.499998789 419.499999316366 486.749999843195 585.49999670876 817.999997168579 1104.99999845347 1235.99999538414 1406.99999481877 1400.2500035837 1072.7499999666 1093.00000083 987.750000463686 842.750001471616 672.749999252205 629.750001519395 493.000001660596 432.750000082513 451.499999595911 420.999998562303 451.750000374396 459.499999294041 495.750000134954 499.249999789825 491.999999750843 457.999999096101 497.49999944343 548.000000662763 444.000000385217 440.999999844776 477.749999100877 503.250002087048 446.000000052891 447.749999773605 452.750000093895 451.999999918953 455.750000040813 459.499999671215 456.999999917231 464.999999805531 517.499999524432 479.750000239379 481.249999929113 594.749997930503 632.000000114948 677.49999884294 691.750000538583 634.750000307698 669.250000339198 679.749999035088 773.999999312705 852.49999663187 797.25000249669 854.999999147213 930.499997058075 1052.99999629972 1282.99999683527 1402.74999901665 1490.24999879078 1577.75000143775 1531.24999896686 1712.7499972018 1678.49999810193 2045.99999443358 1643.75001027086 1192.00000455158 1067.74999981871 1052.50000652597 658.50000703011 477.749999246027 551.24999903953 649.749997305623 -9999 -9999 -9999 -9999 -9999 -9999 -9999 -9999 -9999 -9999 -9999 -9999 -9999 -9999 -9999 -9999 -9999 -9999 -9999 -9999 -9999 -9999 -9999 -9999 -9999 -9999 -9999 -9999 -9999 -9999 -9999 -9999
-9999 -9999 -9999 -9999 -9999 -9999 -9999 -9999 -9999 -9999 -9999 -9999 -9999 -9999 -9999 -9999 -9999 -9999 -9999 -9999 -9999 -9999 -9999 -9999 -9999 -9999 -9999 -9999 -9999 -9999 -9999 -9999 -9999 -9999 -9999 -9999 -9999 -9999 -9999 -9999 -9999 -9999 -9999 -9999 -9999 -9999 -9999 -9999 -9999 -9999 -9999 -9999 -9999 -9999 -9999 -9999 -9999 -9999 -9999 -9999 -9999 -9999 -9999 -9999 -9999 -9999 -9999 -9999 -9999 -9999 -9999 -9999 -9999 -9999 -9999 -9999 -9999 -9999 -9999 -9999 -9999 -9999 -9999 -9999 -9999 3.00000001632486 18.7499999917461 23.2500000250605 11.2500000253448 11.2499999572756 11.7499999568019 15.4999999650579 14.0000000176601 17.0000000178524 15.7500000270659 16.7500000273503 17.7500000092118 19.0000000558487 22.2499999529837 28.4999999240087 43.4999997505449 62.4999997480624 87.9999996868689 118.749999654164 164.999999082166 222.999999294984 302.249998566417 361.749999497092 399.249999803175 430.999999999972 532.749997647508 638.749997881736 777.249999473716 995.000001885307 972.999995780551 978.250003759958 854.999995929329 1018.4999998204 1180.49999923067 1076.75000165433 943.75000070169 758.500002041444 553.500001216248 463.250000389062 418.00000014262 402.750000826692 393.249999770542 417.7499992575 477.749999153543 491.750001075581 -9999 450.999999573167 465.249999658452 454.750000777431 433 436.49999997413 453.249999387546 442.500000052502 443.999999762002 459.500000612622 457.499999919533 461.250000094572 456.249999850361 482.000001643971 536.999999034409 -9999 -9999 509.250000830811 493.249999985825 513.24999961464 649.749997801829 819.499999248018 842.000000611485 761.750001304242 765.249999572276 770.000001365785 733.499997848563 891.749995834969 994.249999894113 1141.2499968785 1059.25000249759 1185.74999511246 1355.99999869689 1492.49999681581 1496.74999960741 1492.75000165891 1438.24999931652 1473.2499994723 1591.24999538336 1902.24999697395 1779.50000439481 1480.25000535395 1685.25000064232 1190.00000761923 801.750003015347 602.00000167549 648.999998618336 761.999999491685 -9999 -9999 -9999 -9999 -9999 -9999 -9999 -9999 -9999 -9999 -9999 -9999 -9999 -9999 -9999 -9999 -9999 -9999 -9999 -9999 -9999 -9999 -9999 -9999 -9999 -9999 -9999 -9999 -9999 -9999 -9999 -9999
-9999 -9999 -9999 -9999 -9999 -9999 -9999 -9999 -9999 -9999 -9999 -9999 -9999 -9999 -9999 -9999 -9999 -9999 -9999 -9999 -9999 -9999 -9999 -9999 -9999 -9999 -9999 -9999 -9999 -9999 -9999 -9999 -9999 -9999 -9999 -9999 -9999 -9999 -9999 -9999 -9999 -9999 -9999 -9999 -9999 -9999 -9999 -9999 -9999 -9999 -9999 -9999 -9999 -9999 -9999 -9999 -9999 -9999 -9999 -9999 -9999 -9999 -9999 -9999 -9999 -9999 -9999 -9999 -9999 -9999 -9999 -9999 -9999 -9999 -9999 -9999 -9999 -9999 -9999 -9999 -9999 -9999 -9999 -9999 -9999 -9999 24.2499999256836 18.7500001085986 7.2499999746543 8.74999999145494 12.4999998272098 20.250000043673 16.500000052982 17.0000000178515 19.7499999729354 19.2499999179462 18.749999917091 20.2499999348449 29.4999999247714 34.7499999905004 46.2499998368953 64.4999997674411 92.4999995890097 117.249999713452 143.749999571022 183.249999808649 226.249999603482 256.749999599775 303.749998912427 352.500000878099 397.99999987343 401.000000532246 503.499998217215 567.500000780263 616.749999945447 644.500001014497 752.249995584471 983.749998373339 1005.49999841612 1168.25000094688 935.250002427243 683.000000556765 542.000002081636 422.250000554139 396.25000005943 -9999 406.250000374368 423.249998551547 480.249999938695 521.000000098917 443.250001133715 437.749999761465 461.749999607837 453.250000675463 453.999999820228 443.750000064672 440.249999986969 441.749999803106 438.749999960333 459.74999921428 478.499998417286 513.750002282962 -9999 -9999 -9999 -9999 -9999 525.250000154888 506.499999858222 515.749999700276 572.249999468439 646.749998307929 710.749999199346 760.249998578574 884.499998937998 937.750003102596 819.000000896397 939.999998165586 1021.49999894075 1264.74999288897 1409.74999765554 1239.25000544257 1427.99999391878 1605.99999903228 1558.75000230862 1437.25000308088 1342.2500003338 1395.74999873681 1499.24999580162 1604.00000252438 1750.4999925451 2043.24999998363 1873.75001144528 1395.50000563151 1101.75000781309 818.000003049291 751.999996461451 997.499993153957 1118.5000014655 -9999 -9999 -9999 -9999 -9999 -9999 -9999 -9999 -9999 -9999 -9999 -9999 -9999 -9999 -9999 -9999 -9999 -9999 -9999 -9999 -9999 -9999 -9999 -9999 -9999 -9999 -9999 -9999 -9999 -9999 -9999
-9999 -9999 -9999 -9999 -9999 -9999 -9999 -9999 -9999 -9999 -9999 -9999 -9999 -9999 -9999 -9999 -9999 -9999 -9999 -9999 -9999 -9999 -9999 -9999 -9999 -9999 -9999 -9999 -9999 -9999 -9999 -9999 -9999 -9999 -9999 -9999 -9999 -9999 -9999 -9999 -9999 -9999 -9999 -9999 -9999 -9999 -9999 -9999 -9999 -9999 -9999 -9999 -9999 -9999 -9999 -9999 -9999 -9999 -9999 -9999 -9999 -9999 -9999 -9999 -9999 -9999 -9999 -9999 -9999 -9999 -9999 -9999 -9999 -9999 -9999 -9999 -9999 -9999 -9999 -9999 -9999 -9999 -9999 -9999 -9999 -9999 -9999 10.2500001420063 5.75000002534655 7.50000001708969 15.9999997235389 27.2500000262043 26.0000000000013 22.250000026779 19.2499999368516 17.2500001367506 14.0000000737015 23.4999999255358 39.7500001410547 57.7499999905157 47.4999999808145 56.7499998352701 80.74999971622 100.499999762856 127.499999780514 166.749999546771 207.499999511978 239.000000061576 262.749999803201 307.999999163732 355.749999694063 347.250000521562 361.249999795952 475.749997453654 654.500001617694 662.999998367937 755.749999922022 885.499996298295 1185.74999754505 1079.00000038781 968.500002898863 948.25000084674 744.500002947091 514.000003513506 399.500000071318 -9999 -9999 392.99999970786 392.500000073597 426.499998664818 487.749997944405 494.250000841133 482.999999848201 520.500000484329 463.750000115571 464.499999482605 450.500000156367 461.749999829357 465.75000046277 443.000000000002 442.000000026826 443.999999837897 460.99999953747 -9999 590.249996647821 722.249999236033 632.750000405615 695.750000211231 573.250000070895 561.250000157018 561.499999166717 643.249998250028 643.000000320316 723.249997259677 868.49999825952 991.750000222664 1014.25000001497 846.999999639146 990.749997775576 1089.74999645207 1249.75000084267 1425.74999946031 1395.25000383192 1328.24999811135 1357.00000075383 1404.50000104281 1344.00000047686 1336.74999988807 1419.99999562469 1499.99999970872 1710.99999189395 1778.7500000818 1957.49999318218 1627.50000848058 1270.2500034818 983.000003853594 903.749997624159 1033.74999659396 1225.74999889232 1134.25000498677 -9999 -9999 -9999 -9999 -9999 -9999 -9999 -9999 -9999 -9999 -9999 -9999 -9999 -9999 -9999 -9999 -9999 -9999 -9999 -9999 -9999 -9999 -9999 -9999 -9999 -9999 -9999 -9999 -9999 -9999
-9999 -9999 -9999 -9999 -9999 -9999 -9999 -9999 -9999 -9999 -9999 -9999 -9999 -9999 -9999 -9999 -9999 -9999 -9999 -9999 -9999 -9999 -9999 -9999 -9999 -9999 -9999 -9999 -9999 -9999 -9999 -9999 -9999 -9999 -9999 -9999 -9999 -9999 -9999 -9999 -9999 -9999 -9999 -9999 -9999 -9999 -9999 -9999 -9999 -9999 -9999 -9999 -9999 -9999 -9999 -9999 -9999 -9999 -9999 -9999 -9999 -9999 -9999 -9999 -9999 -9999 -9999 -9999 -9999 -9999 -9999 -9999 -9999 -9999 -9999 -9999 -9999 -9999 -9999 -9999 -9999 -9999 -9999 -9999 -9999 -9999 -9999 -9999 -9999 7.00000001709012 22.749999697616 31.0000000349391 29.75000002649 14.5000004820008 26.4999997654211 28.7499997903017 45.2499998618012 48.9999997207482 111.750000084618 87.9999989741087 116.250000297397 88.2499998933877 74.4999999217164 91.7499997727388 115.249999650826 143.999999838852 190.249999786503 232.999999322662 249.750000403963 300.000000271799 277.499999936711 317.74999960616 360.749999366348 380.749999989187 539.499996305273 791.249997739608 792.50000318103 759.250002703554 834.499999230746 926.250001038224 869.750002496286 768.500000394386 774.749999801242 821.000000848866 553.500000974557 436.250001473633 -9999 -9999 380 397.749999221137 525.249998592236 568.249998681831 588.500001720316 529.99999949019 514.000000179749 482.250000297503 462.000000130303 454.749999986871 451.499999920668 442.000000612605 439.500000026823 460.749999500186 475.24999938782 574.500000027422 643.749999213711 667.250000819572 646.499999468525 691.999999380415 710.25000049616 670.500000228316 618.999999999986 779.749998163229 892.499998718844 887.249999545676 916.249998038275 1152.99999468546 1194.7500004631 1043.25000311247 884.249999954597 940.999998781838 1119.99999399359 1267.00000003082 1391.99999578039 1550.99999956292 1595.99999770712 1586.25000074249 1509.25000128742 1384.50000131117 1374.7499988901 1413.99999818768 1597.24999838856 1659.49999777333 1875.24999448319 1865.50000424036 1428.25000494773 1156.50000314982 949.249999882031 1042.99999806822 1180.74999637024 1329.75000005134 -9999 -9999 -9999 -9999 -9999 -9999 -9999 -9999 -9999 -9999 -9999 -9999 -9999 -9999 -9999 -9999 -9999 -9999 -9999 -9999 -9999 -9999 -9999 -9999 -9999 -9999 -9999 -9999 -9999 -9999
-9999 -9999 -9999 -9999 -9999 -9999 -9999 -9999 -9999 -9999 -9999 -9999 -9999 -9999 -9999 -9999 -9999 -9999 -9999 -9999 -9999 -9999 -9999 -9999 -9999 -9999 -9999 -9999 -9999 -9999 -9999 -9999 -9999 -9999 -9999 -9999 -9999 -9999 -9999 -9999 -9999 -9999 -9999 -9999 -9999 -9999 -9999 -9999 -9999 -9999 -9999 -9999 -9999 -9999 -9999 -9999 -9999 -9999 -9999 -9999 -9999 -9999 -9999 -9999 -9999 -9999 -9999 -9999 -9999 -9999 -9999 -9999 -9999 -9999 -9999 -9999 -9999 -9999 -9999 -9999 -9999 -9999 -9999 -9999 -9999 -9999 -9999 -9999 -9999 -9999 20.2499999222393 25.4999998951733 29.0000000529812 12.7500002052939 47.2499997022919 64.5000000182378 82.2499996591584 118.749999525316 126.250000818128 110.749999895529 174.749999318789 129.749999893418 89.9999997064479 92.4999998814286 112.249999730639 134.999999858994 165.249999420483 222.499998932695 224.749999181718 262.250000825826 273.750000263711 302.999999914844 300.499998968952 312.999999913302 465.749996359947 620.000000330746 468.750001234535 789.499998294943 882.999999275961 838.500003262823 737.500004969515 672.250000034752 709.249998491421 859.749998502678 889.25000039225 681.25000298338 535.000003115838 420.250000499068 389.250000061343 392.749999789832 421.49999952657 474.249998983121 520.249998975392 574.999999719614 610.999999768882 558.000000905485 488.750000534263 464.750000223147 440.500000925539 432.499999653743 458.750000040226 438.750000121569 464.749999333398 494.999999808201 601.249997916933 584.750000597289 682.749998503527 698.000000901219 695.74999984403 754.250000271176 706.000001609162 783.499998380216 911.99999851508 980.499999237966 989.74999998523 1087.24999642231 1249.25000121012 1138.75000049622 1127.00000233033 1040.50000185777 997.499999141942 1110.99999713224 1218.99999761091 1400.74999773666 1602.49999506868 1871.99999851486 1884.75000233659 1594.00000489303 1409.75000223594 1429.49999702257 1561.99999999997 1635.24999703657 1835.49999769446 1765.50000467092 1436.50000396488 1219.00000237917 1024.25000335319 1136.4999974243 1294.74999572267 1486.75000097675 1261.00000275699 -9999 -9999 -9999 -9999 -9999 -9999 -9999 -9999 -9999 -9999 -9999 -9999 -9999 -9999 -9999 -9999 -9999 -9999 -9999 -9999 -9999 -9999 -9999 -9999 -9999 -9999 -9999 -9999 -9999
-9999 -9999 -9999 -9999 -9999 -9999 -9999 -9999 -9999 -9999 -9999 -9999 -9999 -9999 -9999 -9999 -9999 -9999 -9999 -9999 -9999 -9999 -9999 -9999 -9999 -9999 -9999 -9999 -9999 -9999 -9999 -9999 -9999 -9999 -9999 -9999 -9999 -9999 -9999 -9999 -9999 -9999 -9999 -9999 -9999 -9999 -9999 -9999 -9999 -9999 -9999 -9999 -9999 -9999 -9999 -9999 -9999 -9999 -9999 -9999 -9999 -9999 -9999 -9999 -9999 -9999 -9999 -9999 -9999 -9999 -9999 -9999 -9999 -9999 -9999 -9999 -9999 -9999 -9999 -9999 -9999 -9999 -9999 -9999 -9999 -9999 -9999 -9999 -9999 -9999 -9999 -9999 -9999 -9999 52.9999995128488 89.249999571502 166.499999760488 204.499998994734 274.75000102494 241.249999705502 183.249998839055 138.499999767437 137.249999637926 124.750000365586 111.749999930169 127.24999970793 146.749999847502 181.500000000003 201.74999922315 227.75000026136 265.499999345957 281.500001767001 267.249999301912 329.999996272591 399.250001169642 491.750001532687 422.249999143637 584.750001536862 737.499997352818 655.500001186572 594.250001138902 625.999998770478 723.999999625752 812.74999727651 995.500001854151 963.750000203664 867.00000509623 568.000001947476 468.75000195049 401.999999975276 397.249999937715 420.499999271881 473.249999228411 534.750000191234 507.499999101172 569.250000530368 508.500001277011 453.000000446294 423.500000634661 427.500000159813 424.000000134137 437.499999918945 481.74999854436 622.250000534206 532.249999931035 547.000001916936 624.999997986047 637.500001126538 642.25000024102 715.249998387211 775.249998836265 805.750000592978 851.499999388584 894.749999047495 926.249999041293 1052.499997892 1113.50000053787 1142.9999961207 1379.75000052956 1346.24999763974 1286.75000283465 1180.50000185014 1201.49999965873 1296.99999662846 1435.49999874366 1589.99999608187 1785.74999874442 1798.50000271833 1560.75000561388 1396.25000046926 1424.24999962565 1484.74999867383 1673.00000069169 1823.75000091101 1572.00000759654 1282.25000370276 1077.50000303303 1144.74999788181 1222.74999868785 1283.49999910892 1273.00000206773 -9999 -9999 -9999 -9999 -9999 -9999 -9999 -9999 -9999 -9999 -9999 -9999 -9999 -9999 -9999 -9999 -9999 -9999 -9999 -9999 -9999 -9999 -9999 -9999 -9999 -9999 -9999 -9999 -9999
-9999 -9999 -9999 -9999 -9999 -9999 -9999 -9999 -9999 -9999 -9999 -9999 -9999 -9999 -9999 -9999 -9999 -9999 -9999 -9999 -9999 -9999 -9999 -9999 -9999 -9999 -9999 -9999 -9999 -9999 -9999 -9999 -9999 -9999 -9999 -9999 -9999 -9999 -9999 -9999 -9999 -9999 -9999 -9999 -9999 -9999 -9999 -9999 -9999 -9999 -9999 -9999 -9999 -9999 -9999 -9999 -9999 -9999 -9999 -9999 -9999 -9999 -9999 -9999 -9999 -9999 -9999 -9999 -9999 -9999 -9999 -9999 -9999 -9999 -9999 -9999 -9999 -9999 -9999 -9999 -9999 -9999 -9999 -9999 -9999 -9999 -9999 -9999 -9999 -9999 -9999 -9999 -9999 -9999 -9999 56.2499994073854 146.999999078742 196.249998129078 222.749999332318 229.500000018969 217.000000153523 118.249999738371 157.99999863004 150.750000662022 95.499999760558 127.749999446077 134.750000152505 152.74999984606 196.249999430304 218.749998756034 246.749999778471 234.250001245386 226.499999398559 298.24999736697 376.249999202031 331.000001477519 319.249996585485 424.99999883342 460.499998076822 565.74999661174 816.249999068325 792.999998352961 769.500001192834 754.499998891725 879.000002448395 962.000000383381 902.249999963689 830.750002397851 698.750001680645 515.500001162157 406.500001196038 375.999999849346 401.499999797605 415.749999859798 424.999999460686 449.249999805955 443.9999999218 442.249999960625 407.500000185104 409.249999853506 418.249999825632 428.249999743336 447.999999292585 -9999 -9999 482.249998763755 571.249996097905 623.249999704276 638.750000184294 692.999998715447 760.499999310372 757.250000650803 812.499998369485 864.000000615459 935.999997374584 1094.49999807015 1092.00000074703 1071.24999760926 1211.74999798746 1369.74999596489 1363.25000562342 1221.50000074008 1238.99999844867 1249.24999923516 1307.49999877503 1359.99999952601 1423.4999980608 1553.49999699379 1602.24999959779 1498.50000323634 1427.25000066738 1465.49999656174 1569.74999916012 1699.75000087784 1560.75000728003 1321.50000274776 1119.00000357225 1133.99999820379 1179.74999943764 1236.99999880043 1299.49999820794 1156.50000384653 -9999 -9999 -9999 -9999 -9999 -9999 -9999 -9999 -9999 -9999 -9999 -9999 -9999 -9999 -9999 -9999 -9999 -9999 -9999 -9999 -9999 -9999 -9999 -9999 -9999 -9999 -9999 -9999
